# .PCD v0.7 - Point Cloud Data file format
VERSION 0.7
FIELDS x y z
SIZE 4 4 4
TYPE F F F
COUNT 1 1 1
WIDTH 1594
HEIGHT 1
VIEWPOINT 0 0 0 1 0 0 0
POINTS 1594
DATA ascii
0.47459999 0.8021 -0.31639999
0.25170001 -0.82950002 -0.47799999
0.16410001 -0.4481 0.08478
-0.2967 0.32319999 0.08557
0.56059998 0.71020001 -0.26820001
0.20389999 0.2999 -0.22139999
-0.35879999 -0.76599997 0.25139999
-0.48699999 0.44659999 -0.01605
0.1512 0.32300001 -0.26930001
-0.2472 -0.8592 -0.3926
0.4156 0.78380001 -0.4542
-0.035610002 0.050050002 0.3425
-0.033270001 -0.84869999 -0.52590001
0.24510001 0.01485 -0.091559999
0.08941 -0.8574 0.2273
0.39359999 0.15620001 0.2041
0.1354 0.1698 0.15459999
0.40549999 0.16159999 0.18170001
-0.42109999 -0.81120002 0.31400001
0.28310001 -0.8624 -0.36399999
0.054400001 -0.84799999 -0.51069999
-0.1741 0.2436 0.2146
-0.081579998 0.2033 0.45820001
0.32960001 0.73500001 0.237
0.1829 -0.0060609998 -0.1004
0.5291 0.69559997 0.3012
-0.027629999 0.7913 0.50599998
-0.2674 0.61860001 0.2041
0.1913 0.69559997 0.5747
0.2177 0.23540001 -0.1639
-0.49919999 0.63069999 0.036010001
-0.089199997 -0.068449996 0.1126
0.19329999 0.204 0.1496
0.36880001 0.2044 -0.2852
0.1354 0.1309 0.051449999
-0.083400004 -0.66399997 0.0101
-0.3427 0.62690002 -0.0070239999
0.062150002 -0.069519997 0.1295
0.2133 0.1805 0.055720001
-0.12890001 -0.44569999 0.13519999
0.24699999 0.68629998 -0.52130002
-0.05559 0.35120001 0.3107
0.2525 0.2131 0.02768
0.1578 0.39809999 -0.28850001
-0.3019 0.68720001 0.2237
-0.4747 0.60860002 0.1242
0.148 0.30500001 -0.26429999
-0.43779999 -0.86290002 0.1477
0.073310003 -0.73729998 -0.1487
0.1209 -0.3529 -0.087300003
0.1211 -0.36179999 -0.1058
-0.41049999 -0.8409 0.2423
-0.26629999 -0.75629997 0.28310001
-0.3096 -0.78719997 -0.37329999
-0.14 -0.1141 -0.0084899999
-0.1909 0.71640003 0.59810001
0.15790001 0.2226 -0.2119
0.1145 0.25350001 -0.25780001
0.12970001 0.43540001 0.29660001
-0.3565 -0.86680001 0.2388
-0.083750002 0.39829999 -0.31819999
0.47549999 0.6904 0.34740001
0.1098 -0.78189999 -0.46250001
-0.61299998 0.77139997 -0.1463
0.45730001 -0.84600002 -0.27250001
-0.42469999 -0.79400003 -0.2692
-0.042800002 -0.63609999 0.077550001
0.17640001 0.77539998 0.60390002
-0.32179999 0.5266 0.02482
-0.1283 -0.85750002 -0.2112
0.5359 0.67360002 -0.1415
0.1244 0.4014 0.3019
-0.30270001 0.60369998 0.1283
-0.091540001 0.074409999 0.36430001
0.1119 -0.3075 -0.059360001
0.2148 0.71619999 0.32820001
0.40090001 0.1497 -0.1768
-0.56809998 0.8021 0.09059
-0.23999999 0.1946 0.3973
-0.31299999 -0.76459998 0.30590001
-0.34810001 0.13240001 0.24609999
-0.51370001 -0.81830001 -0.15350001
-0.34740001 -0.7827 0.32859999
-0.32159999 0.57249999 0.056279998
0.098329999 0.38530001 0.31240001
-0.087909997 -0.33579999 0.097649999
0.38690001 0.177 -0.23909999
0.1159 0.43079999 -0.30360001
-0.43399999 -0.86729997 0.084679998
-0.1547 -0.77710003 -0.4373
0.38209999 -0.85409999 0.26179999
0.2746 0.79939997 -0.5194
-0.080219999 -0.85820001 0.2418
0.1175 0.094300002 0.37819999
0.084030002 0.1568 0.16590001
-0.31169999 0.35049999 0.05469
0.1811 0.59810001 -0.27410001
0.48370001 0.26210001 -0.017680001
0.2183 0.034060001 0.2183
0.04964 -0.83939999 -0.020300001
0.2516 0.2199 -0.07485
0.093610004 0.4174 -0.31400001
0.37200001 0.6645 -0.3874
0.075070001 -0.64660001 0.04304
-0.19230001 -0.759 -0.35699999
0.3849 0.74470001 0.1531
0.3035 0.3486 0.08929
-0.052170001 -0.3263 0.117
0.4463 -0.8466 -0.1372
0.1408 -0.48269999 -0.085000001
-0.183 -0.75739998 -0.3506
0.34979999 0.097369999 0.1957
0.2175 0.1795 0.0188
-0.40189999 -0.8678 0.2194
0.1186 0.65750003 -0.33899999
-0.27379999 0.62980002 0.20640001
-0.1901 0.06701 0.31439999
-0.1382 -0.74690002 0.31040001
-0.2106 -0.74949998 -0.28389999
-0.1188 -0.7913 -0.48370001
-0.1367 -0.15189999 -0.0095009999
0.42120001 0.241 0.2326
-0.2314 0.18539999 0.39700001
0.4048 -0.86339998 0.2265
0.3272 0.6063 0.037489999
0.23630001 0.037549999 -0.2093
0.2044 -0.83880001 0.428
-0.1025 0.2588 0.26429999
-0.2007 -0.84280002 0.42429999
0.25009999 0.72119999 0.5772
-0.62349999 0.7723 -0.063369997
-0.4612 -0.77600002 -0.022770001
0.31900001 0.66329998 0.42539999
-0.2016 -0.7579 -0.34810001
0.032329999 0.16779999 0.1996
-0.27630001 0.2436 0.02183
0.04659 0.36899999 0.31760001
0.52420002 -0.83530003 0.1363
0.109 -0.01258 0.15449999
-0.1017 -0.78240001 0.4648
0.26949999 0.39590001 0.1856
0.07271 0.1258 0.41440001
-0.2536 0.40799999 0.2069
-0.026249999 -0.27919999 -0.1239
0.31999999 0.55849999 -0.051130001
0.52880001 0.79409999 -0.27500001
0.1541 -0.73640001 0.01732
0.2 -0.85610002 0.41760001
-0.15719999 -0.80140001 0.48789999
-0.62220001 0.76340002 -0.091279998
0.27020001 0.2256 -0.39179999
0.018130001 0.77209997 -0.62989998
-0.5891 0.69190001 0.069799997
-0.3312 0.1218 0.25580001
-0.1214 -0.4923 0.096809998
0.37090001 0.75190002 0.2034
-0.1112 -0.46430001 0.1353
-0.3872 0.72680002 0.1055
0.2299 0.28400001 0.1832
0.11 -0.00367 0.1858
0.00037699999 0.61519998 0.3353
-0.27630001 -0.86720002 0.34330001
0.039420001 0.37400001 -0.3213
0.018780001 0.37900001 0.32449999
0.25639999 0.68040001 0.50279999
0.4138 0.78750002 -0.27599999
0.085749999 0.792 -0.50169998
0.1851 0.73329997 -0.36199999
0.1202 0.1119 -0.39559999
-0.20900001 0.01211 0.1464
-0.3423 0.80180001 -0.4702
0.29519999 0.49959999 -0.1209
0.3206 0.57139999 0.054960001
-0.01846 0.3425 0.31279999
-0.27070001 0.1376 0.3337
0.43790001 0.65960002 -0.29179999
0.21950001 0.3301 0.2198
0.36210001 0.78320003 0.322
0.25619999 0.25819999 -0.1214
0.49779999 -0.84789997 0.1728
0.036430001 -0.86379999 0.4594
0.30329999 0.78829998 -0.39520001
-0.27450001 -0.73830003 0.0091629997
0.55739999 0.7726 -0.29069999
0.02833 -0.44229999 -0.1856
0.082599998 0.80250001 0.56870002
0.37740001 0.085950002 -0.090230003
-0.4145 0.66540003 0.33939999
-0.396 -0.8628 0.2414
-0.49739999 0.74669999 -0.3908
0.1323 -0.17839999 0.02651
-0.1375 -0.86760002 0.43090001
-0.43309999 -0.86729997 -0.099859998
-0.4093 -0.84909999 -0.3272
0.03489 0.1364 -0.4278
0.3319 -0.86479998 0.32359999
0.1098 -0.7482 -0.32839999
0.05325 0.12710001 -0.4188
-0.054420002 -0.73030001 -0.1178
0.29539999 0.34099999 0.1026
0.51859999 0.80229998 0.2431
0.28220001 0.7647 0.32960001
-0.2263 0.1937 0.4039
-0.13779999 -0.84469998 -0.48640001
0.50279999 0.68040001 0.25639999
0.4409 -0.84490001 0.2951
-0.31940001 0.043019999 0.081309997
0.1372 -0.34509999 -0.024019999
-0.26879999 0.75150001 0.32460001
-0.37959999 0.18189999 0.25260001
-0.099799998 0.019719999 0.25409999
0.034019999 0.1804 -0.21690001
-0.30509999 0.041650001 0.1114
0.055659998 0.2233 0.25870001
-0.417 -0.79400003 0.27779999
-0.064560004 0.61360002 0.32679999
-0.4118 0.7568 0.1181
0.1714 0.76190001 0.39390001
0.46439999 -0.78079998 -0.08213
-0.38389999 0.73890001 0.14569999
0.01853 -0.83630002 -8e-06
-0.31600001 -0.80290002 0.40450001
-0.43470001 0.46270001 -0.2177
0.1032 -0.01945 0.1391
-0.211 0.79860002 0.50449997
0.50590003 -0.80140001 -0.075819999
-0.33140001 0.6189 0.058649998
0.042100001 0.20559999 -0.46529999
0.1178 0.5783 0.30360001
0.1277 -0.75419998 -0.35609999
0.1124 -0.54970002 -0.01792
0.50480002 -0.84460002 -0.0092930002
-0.1469 -0.85329998 0.13770001
0.28459999 0.79659998 -0.45879999
0.05548 -0.84119999 -0.046179999
0.55629998 0.80129999 -0.11
0.082549997 -0.86129999 0.30270001
0.0091960002 -0.86260003 -0.33930001
-0.2016 -0.73769999 0.2016
0.4314 0.57260001 -0.22390001
0.26589999 -0.86409998 -0.25659999
0.16500001 -0.86540002 0.3574
-0.1558 -0.86309999 -0.31169999
0.22930001 -0.86180001 -0.22920001
-0.34830001 -0.86470002 -0.14659999
0.26969999 -0.74739999 -0.20810001
-0.227 0.57810003 -0.2374
0.4804 0.56349999 0.0634
0.4777 0.28850001 0.081390001
-0.2474 -0.86619997 0.3299
-0.2474 -0.86680001 0.34830001
0.25670001 -0.86379999 0.25670001
0.20190001 -0.8592 -0.18350001
-0.1741 -0.86659998 0.3849
-0.25659999 -0.86589998 0.3116
0.1649 -0.73830003 0.2199
-0.2291 -0.86440003 -0.2933
0.1927 -0.8592 -0.1927
0.24789999 0.3008 0.4201
0.2843 -0.86089998 -0.1101
0.47510001 0.3527 0.1008
-0.3391 -0.86540002 0.2016
-0.14669999 -0.86210001 0.29339999
-0.21080001 -0.73839998 0.1558
0.14669999 -0.86470002 0.34830001
-0.43239999 -0.86739999 -0.1184
-0.21080001 -0.73790002 0.0091850003
0.1376 0.79689997 -0.52310002
-0.2383 -0.73790002 0.11
0.2474 -0.73839998 0.1008
0.46360001 0.55430001 0.1451
0.4797 0.55430001 -0.063369997
-0.063500002 0.51770002 -0.48069999
-0.4483 0.51459998 -0.1848
0.41209999 0.53289998 0.25780001
-0.3495 0.33739999 -0.34110001
0.36849999 0.35879999 0.31459999
0.29980001 0.3168 -0.38119999
0.081349999 0.3985 0.4774
0.4474 0.3283 0.18440001
-0.48429999 0.3619 -0.036570001
-0.37720001 0.33739999 -0.30489999
-0.38929999 0.29080001 -0.28929999
-0.4853 0.32600001 0.02888
-0.47839999 0.3619 0.081459999
-0.29980001 0.49860001 -0.3811
-0.36149999 0.43520001 0.32539999
-0.36930001 0.37099999 0.3152
-0.23 0.38940001 0.4285
0.2687 0.30689999 -0.40509999
0.3924 0.35569999 0.2836
-0.48699999 0.41 -0.01605
-0.29980001 0.36109999 -0.3811
0.43380001 0.49020001 -0.2173
0.02111 0.31909999 0.48519999
-0.40880001 0.3955 -0.2638
-0.03655 0.28850001 -0.48429999
0.016030001 0.47260001 -0.48699999
-0.23 0.56349999 0.4285
-0.43759999 0.5169 -0.21070001
-0.2238 0.54519999 0.43110001
0.1067 0.68370003 -0.56019998
0.1552 0.7723 -0.61180001
0.22 -0.73769999 -0.055020001
-0.2458 0.2163 0.081280001
0.4359 0.71539998 -0.4531
0.058359999 0.74669999 -0.41280001
0.064560004 -0.84240001 -0.055300001
-0.036559999 -0.75010002 0.3567
0.58649999 0.7992 0.039299998
0.4501 0.56959999 0.17820001
-0.43529999 0.77539998 -0.1503
0.4244 0.76819998 -0.1201
0.055029999 -0.85650003 -0.22920001
-0.0088339997 0.80190003 0.57380003
0.53509998 -0.8351 0.054219998
0.1415 -0.068300001 0.026799999
0.2103 -0.84939998 0.47549999
0.27090001 0.061469998 0.2352
0.1656 0.78789997 0.46880001
-0.091629997 -0.7378 0.2016
-0.073449999 -0.85299999 0.18359999
2.4000001e-05 -0.85589999 -0.22920001
-0.1086 -0.72469997 0.01809
-0.211 -0.85470003 0.045880001
0.02754 -0.86269999 0.33919999
-0.35749999 -0.86379999 -0.054979999
0.058249999 0.79119998 -0.50239998
0.53240001 0.79619998 0.01843
0.1028 0.44479999 -0.30739999
-0.01832 -0.86449999 -0.37580001
-0.29049999 0.029139999 0.054639999
0.4113 -0.7615 0.04569
0.53240001 0.79610002 -0.027589999
0.036699999 -0.8646 -0.37580001
-0.045839999 -0.85960001 0.2753
0.05497 -0.7378 -0.2474
0.25659999 -0.73799998 -0.036630001
0.58459997 0.6882 -0.01808
-0.38119999 -0.86729997 -0.25350001
-0.2843 0.02565 -0.038699999
-0.074079998 0.7626 0.4242
0.30399999 0.54159999 0.1087
-0.036499999 -0.01062 -0.19140001
0.1004 -0.7439 -0.3105
0.3845 -0.8671 -0.2104
0.073550001 -0.8441 0.073569998
8.9000001e-05 -0.7374 -0.2103
0.39410001 -0.86540002 -0.018309999
0.15360001 -0.83579999 0.51740003
-0.064300001 -0.8527 -0.1837
-0.1008 -0.84719998 0.091689996
0.2177 -0.7457 0.25409999
-0.2859 0.4479 -0.1547
-0.32179999 0.043030001 -0.066919997
-0.054669999 0.66839999 0.53839999
0.087849997 0.09008 -0.38229999
-0.17219999 0.56349999 -0.4535
-0.4483 0.33129999 -0.1848
0.1655 0.3558 0.45519999
0.18440001 0.52069998 0.4474
0.55070001 0.67449999 -0.045510001
0.018379999 -0.8466 0.1284
0.40810001 0.29159999 0.2633
0.076980002 -0.32960001 0.1036
-0.32210001 0.042169999 -0.04865
0.066890001 -0.7859 0.4772
0.46489999 0.2175 -0.082199998
-0.25659999 -0.73820001 -0.03661
-0.28380001 -0.7392 -0.1007
0.2304 0.77630001 -0.40540001
0.31639999 0.41729999 -0.083339997
0.4454 0.55430001 0.191
0.083159998 0.42640001 -0.3163
-0.48390001 -0.7877 -0.045589998
-0.036359999 -0.77319998 -0.4531
0.32570001 0.5905 0.02815
-0.1371 0.78759998 -0.59299999
0.31850001 0.56290001 -0.065070003
0.43830001 -0.76910001 0.082269996
0.018379999 -0.84490001 0.1102
0.30849999 0.4632 0.094209999
-0.097910002 0.1763 -0.192
0.17110001 0.52029997 0.27289999
0.1345 0.1248 -0.018789999
-0.2669 0.4479 -0.18350001
-0.045779999 -0.73760003 0.2111
0.31619999 0.57230002 0.083240002
0.04809 0.72579998 -0.63239998
-0.1267 -0.08681 0.065389998
-0.01774 -0.1785 0.13330001
-0.31799999 0.56290001 0.07412
0.02228 0.73460001 -0.40700001
0.1189 -0.84979999 -0.51109999
0.24779999 0.79579997 -0.4682
0.0091800001 0.5266 -0.32339999
-0.147 -0.85170001 0.1103
-0.1838 0.025520001 -0.2201
-0.1158 -0.77600002 0.4501
-0.226 0.56 -0.2362
-0.2359 0.56 -0.2263
-0.61580002 0.70749998 -0.060540002
-0.1208 -0.41229999 -0.1565
-0.34709999 -0.7529 -0.1279
0.035 -0.15090001 0.132
-0.29089999 0.02832 0.03638
0.30970001 0.3283 0.3723
-0.1102 0.79350001 0.50580001
-0.1193 -0.85360003 0.1652
-0.1743 -0.85479999 -0.1284
-0.41350001 0.79439998 0.3123
0.1194 -0.85290003 0.1561
-0.1558 -0.86400002 -0.33000001
-0.32089999 -0.8628 -0.1192
0.091679998 -0.86409998 0.35749999
0.1006 0.80150002 -0.57260001
-0.58749998 0.79170001 0.1189
0.064180002 -0.86339998 0.3484
-0.2841 -0.86489999 0.25659999
-0.01832 -0.86500001 -0.38499999
-0.37580001 -0.8646 -0.036649998
-0.28400001 -0.73809999 0.073299997
-0.211 -0.86019999 0.2018
-0.156 0.79769999 -0.52289999
-0.48640001 0.7967 -0.22939999
-0.082529999 -0.86129999 -0.30270001
0.1192 -0.8628 0.32089999
-0.1008 -0.86629999 0.4032
0.2018 -0.86019999 0.211
-0.266 -0.861 -0.1559
0.34830001 -0.86540002 -0.1833
-0.064199999 0.79820001 0.54119998
-0.1901 0.74650002 -0.60600001
-0.25650001 -0.7385 0.1557
0.1007 0.46270001 0.47479999
0.46669999 0.51770002 -0.1391
0.1927 -0.85949999 0.20190001
0.2933 -0.86619997 0.2933
0.156 -0.86059999 0.2568
0.03723 0.71060002 0.38640001
0.47639999 0.50849998 -0.087949999
-0.4395 -0.8502 0.28380001
0.01292 0.74370003 -0.4163
0.1657 0.58490002 0.45550001
0.035999998 0.2175 -0.4718
0.3849 -0.86650002 -0.1649
-0.31169999 -0.86309999 0.1559
-0.31169999 -0.86309999 -0.1558
-0.1908 0.3344 0.4447
-0.17200001 0.5176 0.45289999
0.43380001 0.50849998 0.2173
-0.42390001 0.3558 -0.2428
0.1846 0.38319999 0.44780001
0.3743 -0.75449997 -0.063960001
-0.11 -0.8664 0.4032
-0.25659999 -0.73839998 0.1191
-0.3892 0.41909999 -0.28929999
0.1833 -0.73769999 0.16500001
-0.31029999 0.55129999 -0.37310001
-0.1719 0.56349999 0.4526
0.36489999 0.5909 -0.3202
-0.46970001 0.55739999 -0.133
0.45519999 0.5909 -0.1656
-0.1832 -0.73839998 0.2016
-0.54119998 0.7985 -0.11
-0.3653 0.426 0.32049999
0.42649999 0.4077 0.2366
-0.48840001 0.3344 -0.000113
-0.054499999 0.4993 -0.48190001
-0.1009 0.43520001 -0.47569999
-0.4795 0.4718 -0.072520003
0.29980001 0.4359 -0.38119999
-0.2238 0.3161 0.43110001
-0.47839999 0.37099999 0.081459999
0.4729 0.3436 0.1182
0.016030001 0.2985 -0.48699999
-0.33059999 0.3405 -0.35749999
0.022500001 0.55510002 -0.48609999
-0.4206 0.57880002 -0.2483
-0.4646 0.58179998 0.1455
-0.417 0.51770002 -0.25310001
0.4774 0.48100001 0.081349999
-0.045480002 0.31600001 -0.4831
0.3495 0.7622 0.2507
0.1849 0.094120003 -0.35089999
0.27559999 0.79470003 -0.4499
0.34349999 0.061239999 -0.1089
-0.072300002 0.27129999 0.47799999
-0.48190001 0.426 -0.054499999
-0.48069999 0.54519999 -0.063510001
-0.4831 0.32519999 0.04544
-0.47920001 0.25319999 -0.044950001
0.41150001 -0.76789999 -0.1645
-0.3838 -0.76230001 0.1645
-0.4702 0.2265 0.072449997
-0.24779999 0.79579997 0.4682
-0.054499999 0.43520001 -0.48190001
-0.081380002 0.46270001 0.4774
-0.1393 0.30379999 -0.46709999
0.14380001 -0.059429999 0.01798
0.48089999 0.57270002 0.054310001
-0.1296 -0.5205 -0.01465
0.1058 0.1584 -0.15530001
0.61570001 0.7633 -0.1365
-0.075690001 0.1964 -0.4562
0.1108 0.1718 0.1753
-0.43419999 0.25299999 0.2084
0.42910001 -0.76429999 -0.01811
0.17820001 -0.38350001 -0.02679
0.2559 -0.76209998 -0.329
0.1183 0.77149999 -0.61690003
0.45359999 0.77539998 -0.091789998
-0.3177 0.77139997 0.54549998
-0.38519999 0.33050001 -0.29449999
0.3353 0.58179998 0.35260001
0.0091850003 -0.74940002 -0.35690001
0.1567 -0.84369999 -0.4425
-0.2841 0.80000001 0.48590001
0.2651 -0.74199998 0.1736
0.31729999 0.6925 -0.5068
-0.219 -0.75449997 -0.31040001
-0.1451 0.22589999 0.4542
0.50470001 -0.8452 0.0276
0.23720001 -0.74559999 -0.23720001
-0.1083 -0.72589999 -0.036049999
0.16590001 0.1121 -0.37689999
0.1114 -0.1723 0.075779997
0.48609999 0.67570001 0.27379999
-0.34740001 -0.86699998 0.25709999
-0.29969999 0.48159999 -0.1127
-0.3669 0.7978 -0.40369999
-0.2665 0.034340002 -0.1569
0.07999 0.71359998 -0.38330001
0.24950001 0.39469999 0.21160001
-0.41319999 0.79519999 0.32139999
0.29359999 0.79729998 -0.4587
-0.0057660001 0.2024 -0.46849999
-0.39340001 -0.75929999 0.1098
-0.1735 -0.46439999 -0.02228
0.47479999 -0.78759998 -0.1188
-0.52329999 0.66500002 -0.1219
0.2067 0.55379999 -0.25029999
-0.090879999 0.01847 0.25459999
0.04544 0.53600001 -0.4831
-0.4831 0.37099999 0.04544
0.1831 -0.75870001 0.35710001
-0.1274 -0.27039999 1e-06
-0.2712 0.3242 -0.1487
0.2418 0.4603 0.2128
-0.1374 0.77029997 -0.6146
-0.2465 -0.7439 -0.2101
0.59310001 0.73699999 -0.226
-0.1824 -0.74489999 0.27379999
-0.2101 -0.75209999 -0.30160001
0.35640001 -0.75230002 0.1005
-0.2159 0.56019998 -0.2441
0.3486 0.19760001 0.30410001
-0.1847 0.27680001 -0.44800001
0.1393 0.59079999 -0.46709999
0.2482 -0.85869998 -0.082780004
0.35030001 0.77590001 -0.30399999
-0.03593 0.1813 0.45289999
0.53619999 0.80129999 0.18790001
0.1539 -0.86290002 -0.43509999
-0.054990001 0.64910001 0.50809997
-0.0185 0.76359999 -0.6318
0.4795 0.25310001 -0.035799999
0.033950001 0.7597 -0.42719999
0.42840001 -0.82959998 -0.32480001
0.077409998 0.1494 -0.1556
0.18009999 0.7457 0.37470001
-0.41119999 -0.7622 0.07316
-0.018139999 -0.74479997 0.3285
0.0090450002 -0.75309998 0.37450001
-0.0090330001 -0.76349998 -0.42919999
0.36449999 0.2181 -0.30160001
-0.32049999 0.106 0.25080001
-0.31670001 0.66280001 -0.42609999
0.0089189997 0.72460002 0.6358
0.1983 -0.42460001 0.0088379998
-0.39269999 -0.76319999 -0.15530001
-0.16 -0.3752 0.071220003
-0.25940001 0.75419998 0.3346
0.1337 -0.1877 -0.0087970002
0.1183 -0.4786 0.1183
0.12989999 -0.52069998 0.0087540001
0.223 0.69910002 0.56889999
0.005744 0.2147 -0.4747
-0.0088740001 -0.068609998 -0.1442
0.1213 -0.72930002 -0.033300001
0.055380002 0.4993 0.3145
-0.47659999 0.46880001 -0.094460003
-0.32519999 0.6803 -0.1847
0.35260001 0.34349999 0.3353
-0.49259999 -0.78869998 6.5e-05
0.33090001 -0.84219998 -0.36790001
0.43740001 -0.78969997 0.228
0.3249 0.07113 -0.1814
-0.47580001 0.3619 -0.1009
-0.59299999 0.73619998 -0.2271
-0.40939999 0.1971 -0.22050001
0.26660001 0.7087 -0.55989999
-0.1409 0.085730001 -0.35910001
-0.40459999 0.77020001 -0.1839
-0.3628 -0.83630002 0.39919999
-0.391 0.78210002 -0.2807
0.2647 0.80220002 0.51139998
0.1728 -0.0092129996 0.099990003
0.47639999 0.4413 0.087949999
-0.4928 0.63700002 0.1154
-0.3312 0.78649998 -0.36829999
-0.03053 -0.84810001 0.1437
0.4465 -0.83829999 -0.1771
-0.1096 0.32519999 0.47369999
0.01407 -0.73710001 0.1608
-0.40079999 0.27700001 -0.27379999
0.070349999 -0.50080001 0.12980001
0.099990003 -0.0091479998 -0.1727
-0.37740001 0.076549999 0.01176
-0.050299998 0.1244 -0.12540001
0.017309999 -0.1049 0.1389
0.0057270001 0.080569997 -0.38260001
-0.50279999 0.69559997 0.33809999
-0.027389999 -0.75 -0.35679999
-0.064170003 0.801 0.5589
-0.091559999 -0.3441 0.1031
-0.1391 0.48140001 0.2881
-0.2184 0.198 -0.097439997
0.1648 -0.86669999 0.39250001
-0.088249996 -0.46219999 0.1534
0.4804 -0.79939997 0.1701
0.066610001 -0.84890002 0.1401
-0.36019999 0.68400002 -0.44209999
-0.1998 0.00051300001 0.109
-0.46810001 -0.84490001 -0.18359999
0.30309999 0.77130002 -0.33059999
-0.1752 0.19670001 -0.42789999
0.53390002 0.80049998 0.23280001
-0.59380001 0.69510001 -0.1097
-0.092409998 0.3985 0.31529999
-0.2217 0.1849 -0.043400001
0.082630001 -0.84039998 -0.4804
0.15800001 0.1529 0.083489999
-0.2122 0.34119999 0.23190001
0.3037 -0.84140003 -0.35780001
0.4012 -0.86750001 0.2191
-0.2219 0.31779999 -0.2123
0.46020001 0.73030001 -0.4429
-0.1813 0.23450001 0.44080001
-0.41150001 0.68669999 -0.41150001
0.2405 0.2062 0.40349999
-0.33500001 0.047789998 -0.052480001
0.21950001 -0.86669999 0.36579999
0.30199999 -0.86659998 0.30160001
0.30329999 0.53250003 0.1084
-0.083849996 -0.054639999 -0.1196
0.1086 -0.27630001 0.064740002
-0.063359998 0.27110001 -0.4799
-0.3594 -0.80540001 -0.37689999
0.1649 -0.84979999 -0.4948
-0.48789999 -0.8107 -0.1908
-0.40349999 0.72850001 -0.0052510002
-0.43290001 0.1477 0.05751
-0.065200001 0.1006 -0.065099999
-0.382 0.78200001 -0.2899
-0.2789 0.47490001 -0.39719999
4.3e-05 -0.72670001 -0.117
0.48370001 -0.84670001 0.16230001
-0.54180002 0.67409998 0.1066
-0.15800001 0.71960002 -0.61290002
-0.167 -0.77429998 0.42519999
-0.2474 -0.84930003 -0.45809999
-0.3784 0.67449999 -0.40529999
0.5869 0.79070002 0.14929999
-0.47459999 0.4718 -0.1097
-0.1097 0.38940001 -0.47459999
0.44800001 -0.80580002 0.26570001
-0.38080001 0.71630001 -0.1016
0.01753 -0.58139998 -0.097379997
-0.29899999 -0.83770001 -0.37400001
-0.57609999 0.72000003 0.25189999
0.34290001 0.65979999 -0.113
-0.1093 0.26199999 0.47209999
-0.39539999 0.76300001 -0.17200001
0.41549999 0.79250002 0.43329999
0.1163 -0.54540002 -9.6000003e-05
-0.4228 0.1488 -0.1223
0.38589999 0.7949 0.35820001
0.50599998 0.72909999 0.38100001
0.48840001 -0.80059999 -0.1575
-0.37689999 0.1121 0.16590001
0.3964 0.1529 0.19059999
0.40619999 -0.83840001 0.2491
0.27559999 -0.83740002 0.46610001
0.02722 -0.49450001 0.1504
0.1391 -0.8581 -0.2121
-0.1726 0.63770002 -0.30340001
0.25389999 0.085929997 0.28979999
0.48649999 0.28600001 0.0152
-0.40439999 -0.83990002 -0.2606
-0.24250001 0.37029999 -0.2137
0.4201 0.4199 0.24789999
-0.3976 0.68150002 -0.40650001
-0.35249999 -0.84429997 -0.3073
0.42750001 0.76249999 0.04623
0.25369999 0.57279998 -0.2034
-0.34529999 -0.84249997 -0.32769999
-0.01359 -0.84130001 0.47189999
-0.4427 0.69230002 0.3998
0.43970001 0.24089999 0.1868
-0.42070001 0.214 0.21529999
-0.033399999 0.7058 -0.61790001
0.1427 0.6182 -0.30469999
-0.32339999 0.79269999 -0.39700001
0.06583 -0.26370001 0.1094
-0.4057 0.1028 -0.01478
-0.2022 0.6013 -0.25839999
-0.09121 0.71020001 0.61330003
-0.48840001 0.32519999 -0.000113
0.1265 0.4535 -0.47170001
-0.042490002 0.67110002 -0.54479998
0.23890001 0.79400003 0.45989999
-0.01853 -0.73729998 -0.1832
-0.62639999 0.74540001 0.090829998
0.02634 0.7863 0.6103
0.3669 0.80110002 0.43110001
-0.38409999 -0.8678 0.24690001
0.042059999 0.77630001 0.6239
0.32300001 0.041379999 0.02802
0.46250001 -0.83639997 -0.2802
0.19149999 -0.7798 0.4285
0.39559999 0.1452 -0.1816
0.1006 0.47 0.30520001
0.28729999 0.41639999 0.1566
0.26269999 0.73619998 -0.31259999
-0.106 0.1196 -0.40619999
0.54900002 0.7683 0.31349999
-0.38569999 0.086450003 -0.031649999
0.26640001 0.54470003 -0.183
-0.4646 0.30689999 -0.1455
-0.1041 0.70120001 -0.60470003
-0.1015 -0.1471 -0.093110003
0.38699999 0.1389 -0.1908
-0.05477 -0.66729999 -0.063189998
0.3405 0.63730001 0.064750001
0.22059999 -0.84189999 0.44150001
-0.1824 0.65960002 -0.49259999
0.41249999 0.2771 0.25799999
-0.29980001 0.4711 -0.3811
-0.27700001 0.0232 -0.049449999
-0.1063 0.72549999 -0.62440002
0.28889999 0.79280001 0.5255
0.2518 -0.83999997 0.4131
-0.36359999 -0.83880001 0.30489999
0.050749999 0.43090001 0.32030001
-0.1911 -0.73699999 0.066179998
-0.1245 0.73019999 -0.38330001
0.3847 -0.75819999 0.1098
0.24779999 0.27110001 -0.41999999
-0.24609999 0.0077510001 4.0999999e-05
-0.22660001 0.05706 0.2728
-0.1312 0.4903 0.29089999
0.1815 0.46689999 0.26499999
-0.211 -0.76810002 -0.3937
0.064149998 0.72170001 0.6261
0.19580001 0.4905 0.2518
0.4711 0.51770002 -0.12630001
-0.51099998 0.6573 0.1088
-0.27340001 0.7374 -0.57359999
0.26100001 0.271 -0.40990001
0.034639999 -0.17829999 -0.13060001
-0.1082 0.31830001 -0.28569999
0.2173 0.30689999 0.4339
-0.070029996 -0.86699998 -0.4285
-0.3669 0.80159998 0.43920001
-0.1734 0.7353 -0.3691
0.1665 0.72539997 -0.61549997
-0.063950002 -0.76819998 0.4386
-0.054620001 -0.7712 0.4463
-0.43290001 0.76880002 0.091930002
-0.088529997 0.6383 0.33739999
-0.49160001 -0.7906 0.03624
0.091049999 -0.8567 0.2193
0.3937 -0.76670003 -0.20029999
0.1608 0.71020001 -0.60420001
-0.43079999 0.64609998 -0.27599999
0.0022440001 -0.84920001 0.1578
-0.1532 0.28 -0.46129999
0.094180003 0.72490001 -0.62550002
-0.17829999 0.19140001 -0.1499
0.1017 -0.41980001 -0.1742
-0.1577 -0.3831 0.08935
-0.192 0.03311 0.2362
-0.073069997 0.34310001 0.3057
-0.46219999 0.69849998 -0.39899999
-0.29660001 0.60780001 -0.14749999
-0.2402 0.32710001 -0.1929
0.59799999 0.78369999 0.15989999
-0.19679999 0.2651 -0.44150001
-0.2793 0.1558 -0.3425
0.41029999 0.2289 0.2465
0.36489999 0.78079998 -0.50059998
0.56819999 0.75029999 0.27770001
-0.1217 -0.333 0.048670001
0.2947 0.30469999 0.064570002
-0.099270001 -0.5158 -0.090920001
0.08794 0.05226 -0.3391
-0.40000001 0.77380002 -0.2252
-0.1612 0.6911 -0.57279998
0.1147 0.142 -0.42039999
-0.37220001 0.69770002 -0.092479996
0.14309999 -0.84609997 -0.51289999
-0.1452 0.27090001 -0.4637
0.08117 -0.77209997 0.4452
-0.3247 0.60699999 -0.064669997
-0.20999999 0.48100001 0.43709999
-0.1494 0.6171 0.46959999
-0.46250001 0.2436 -0.1355
-0.075580001 -0.4549 -0.164
-0.32699999 0.5984 -0.02833
-0.2174 0.67079997 -0.5
-0.51849997 0.67049998 -0.1717
-0.40349999 0.1671 -0.1953
-0.01328 0.26640001 -0.4858
-0.011 0.68529999 -0.57709998
-0.30610001 0.57239997 -0.1114
0.31009999 0.3301 0.0084119998
-0.53149998 0.70179999 0.3154
-0.14219999 0.1027 -0.3784
0.45840001 -0.83969998 -0.13420001
-0.1573 0.63380003 -0.30829999
-0.19140001 0.71039999 -0.34079999
0.2342 -0.847 0.45500001
-0.1188 0.66320002 -0.34259999
-0.1052 0.1619 -0.1608
-0.38999999 0.2516 -0.28130001
0.34560001 -0.77499998 -0.30160001
-0.1913 0.01525 0.1812
-0.16760001 -0.86040002 -0.4303
0.18700001 0.75150001 0.60500002
-0.098389998 0.35550001 -0.30320001
-0.0085490001 0.3527 -0.48800001
0.31009999 -0.77060002 0.32800001
-0.4567 0.75529999 0.44
-0.3105 0.3389 -0.031160001
-0.4201 -0.86699998 -0.1176
-0.1947 0.2484 -0.43889999
-0.081969999 0.0173 -0.2552
-0.2638 -0.84939998 -0.45570001
0.39680001 -0.83389997 -0.368
-0.15710001 0.57370001 -0.28760001
0.36449999 -0.77100003 0.26409999
0.4736 0.64480001 -0.1857
-0.05421 0.76109999 -0.42629999
0.49680001 0.66259998 0.1868
-0.2656 0.58600003 -0.19140001
-0.1155 -0.1707 -0.071319997
-0.037599999 0.60589999 -0.32769999
-0.17299999 -0.46349999 -0.030069999
-0.2192 0.72250003 -0.59179997
-0.3019 0.78030002 -0.3662
-0.48800001 0.4443 -0.0086070001
-0.079910003 0.50260001 -0.3114
-0.49270001 -0.84649998 0.13850001
-0.15530001 0.2128 -0.2024
-0.43380001 0.2189 -0.1891
0.43920001 -0.76800001 0.05573
-0.32249999 0.68269998 -0.192
0.2352 -0.77270001 0.39039999
-0.4163 0.20029999 -0.2078
-0.13959999 0.28670001 -0.26199999
-0.093539998 0.67699999 -0.54890001
-0.1443 0.2265 0.2251
0.28889999 0.089160003 -0.2633
0.30939999 0.67210001 0.45269999
-0.079980001 0.26249999 -0.2762
0.2931 0.80239999 -0.49579999
0.1529 0.43520001 0.46079999
-0.37760001 0.63429999 -0.33250001
0.1935 -0.81449997 0.49290001
-0.44839999 0.17659999 -0.058929998
-0.1719 -0.38069999 -0.05308
-0.2007 0.3829 -0.2568
0.1181 0.40509999 0.3044
-0.1065 -0.84859997 -0.51630002
-0.40830001 -0.84729999 -0.3075
-0.2879 0.73259997 -0.56849998
-0.29519999 0.6979 0.24259999
0.3409 0.6699 0.12989999
-0.4138 0.78729999 -0.27590001
-0.23800001 0.2448 -0.14480001
0.1593 0.33129999 0.4578
-0.1172 0.16760001 -0.1637
-0.53119999 0.71969998 -0.33989999
-0.35420001 0.76599997 -0.2527
-0.3087 0.3506 0.07474
-0.45719999 0.6595 -0.26550001
-0.074429996 -0.85860002 -0.25029999
-0.32049999 0.6947 -0.5126
0.38420001 0.77289999 -0.244
0.28150001 0.033580001 -0.1185
0.29390001 0.4402 0.13500001
0.0084589999 0.4718 -0.48800001
-0.071010001 0.71859998 -0.3874
0.4501 0.17120001 0.01764
0.0094579998 0.67919999 -0.3725
-1e-06 0.60799998 -0.33250001
-0.3565 -0.83859998 -0.3222
-0.17730001 0.37009999 -0.2703
-0.14470001 0.69239998 -0.34999999
-0.46380001 0.67049998 -0.2902
0.37200001 -0.84820002 -0.36019999
0.1578 -0.49039999 -0.0043990002
0.1997 -0.82999998 -0.49939999
-0.02674 0.61650002 -0.33450001
-0.44279999 0.3168 0.1981
-0.18189999 0.2447 -0.2104
-0.1128 0.5079 -0.30000001
-0.2262 0.80080003 -0.51980001
-0.58450001 0.6886 0.027240001
-0.1564 0.77200001 0.42399999
0.21070001 0.44510001 -0.43759999
-0.1673 -0.39129999 -0.080640003
0.38299999 -0.75470001 -0.00054500002
-0.44940001 -0.84820002 0.25749999
-0.1046 0.023429999 0.2615
-0.1071 0.60350001 -0.3114
0.52649999 0.67129999 -0.1556
-0.29710001 0.12899999 -0.30590001
3.8999999e-05 -0.0091199996 -0.1999
-0.4824 0.62889999 -0.13789999
-0.03019 -0.79250002 0.4984
-0.3107 0.45390001 0.093520001
0.294 0.31189999 0.080279998
-0.33090001 0.59680003 -0.3574
0.25560001 -0.84539998 0.43920001
-0.50019997 0.7141 -0.37279999
-0.32179999 0.51749998 0.01967
0.01898 -0.1147 -0.13860001
0.41600001 -0.84020001 -0.248
0.097390004 -0.79280001 0.48910001
0.4526 -0.77399999 0.060759999
-0.44850001 0.65859997 -0.27489999
-0.1521 0.8003 0.56889999
0.54390001 0.78380001 0.28889999
-0.1065 -0.41150001 0.16599999
-0.36590001 0.66720003 0.0060609998
-0.23100001 0.2045 0.40830001
-0.35510001 0.70730001 0.50669998
-0.12819999 -0.44490001 -0.1364
-0.2762 0.024150001 0.069969997
-0.3035 0.5675 -0.1169
-0.25299999 0.23459999 -0.40759999
-0.2042 0.67519999 -0.51410002
-0.02768 0.18009999 -0.45429999
-0.1674 0.19509999 -0.43020001
-0.58209997 0.80080003 0.050170001
-0.21179999 0.78509998 -0.44229999
-0.055 0.12819999 -0.1304
-0.2897 0.4357 -0.1489
-0.1036 -0.7723 0.4443
-0.2379 0.52319998 -0.2183
0.14120001 0.4463 0.29080001
-0.52859998 0.66039997 0.01794
0.5194 0.79570001 -0.29170001
0.22660001 0.051879998 -0.26390001
0.1381 0.71899998 -0.36899999
-0.3326 0.6182 0.049630001
-0.1198 -0.48190001 0.1137
0.12980001 -0.38749999 0.12970001
-0.44569999 0.3344 -0.1911
-0.43759999 0.37029999 -0.21070001
0.23010001 0.33739999 0.42860001
-0.22409999 0.56650001 -0.43200001
-0.2304 0.5054 -0.4294
0.46450001 0.79280001 -0.37470001
0.0029529999 0.69080001 -0.37970001
-0.29120001 0.49770001 -0.1322
0.38479999 0.66540003 -0.37830001
-0.3441 0.75029999 -0.2422
0.45019999 -0.77569997 -0.1066
-0.3369 0.73949999 -0.23540001
0.0053300001 -0.3522 0.14839999
-0.20110001 0.1981 -0.4179
-0.30180001 0.4962 -0.106
-0.13600001 0.1753 -0.1645
-0.088179998 0.7902 0.59579998
-0.01317 -0.6135 -0.091710001
-0.043370001 0.354 -0.31400001
-0.1957 0.04183 -0.2595
0.02107 0.02234 -0.27869999
-0.23800001 0.62809998 -0.2484
-0.1504 0.041689999 0.289
0.13 0.42640001 0.2974
0.29429999 0.43239999 0.13609999
0.1427 0.66670001 -0.52249998
0.60149997 0.78649998 0.091190003
-0.336 0.38940001 -0.35339999
0.31990001 0.48100001 -0.01771
-0.073509999 0.77170002 -0.62239999
-0.21070001 0.37940001 -0.43759999
-0.1785 0.4199 -0.45089999
0.46250001 -0.78170002 0.1068
-0.2335 0.66369998 -0.4795
0.3328 0.66729999 0.42390001
-0.089979999 -0.3838 0.1576
0.44960001 -0.84500003 -0.22939999
-0.1027 0.1185 -0.074450001
-0.26289999 0.029030001 -0.1358
0.29120001 0.43849999 0.14210001
0.2419 -0.78329998 0.4154
-0.1314 -0.4576 -0.1227
0.3075 -0.74739999 -0.14920001
0.1295 -0.84939998 0.092770003
0.55970001 0.78179997 -0.26190001
-0.31709999 0.073729999 -0.1988
0.39899999 -0.8082 0.3355
-0.4208 0.67729998 -0.3664
0.47350001 0.78659999 0.38240001
-0.1701 0.6311 -0.30050001
-0.085040003 -0.1112 -0.1114
0.1593 0.31299999 0.4578
-0.047029998 0.2325 -0.47490001
-0.2291 0.76289999 -0.36790001
0.183 0.0493 -0.29120001
-0.2008 0.062820002 -0.30059999
0.51179999 0.79650003 0.30180001
0.18260001 -0.3888 -0.01492
0.14560001 0.64039999 -0.48719999
-0.22139999 0.57499999 -0.2411
0.34490001 0.76490003 0.52679998
-0.4637 0.19859999 0.027009999
-0.42390001 0.4657 -0.2428
-0.1265 0.57260001 -0.47170001
0.26859999 0.28639999 -0.1217
-0.089149997 -0.61040002 -0.02746
-0.48100001 0.78500003 -0.08574
-0.42019999 0.2078 0.20819999
-0.31720001 0.76440001 0.5478
0.48519999 0.75 0.4039
0.3955 -0.84829998 -0.32980001
0.41620001 0.34349999 0.25240001
-0.4325 0.1656 -0.1234
0.087860003 -0.38479999 0.1591
-0.057870001 -0.76450002 0.4267
0.1132 -0.3955 0.14910001
-0.52569997 0.69169998 -0.2791
-0.46830001 0.78039998 -0.091669999
-0.2439 0.030239999 -0.17110001
-0.4294 0.32210001 -0.2304
0.1842 0.041949999 -0.26859999
-0.44999999 0.80129999 0.37009999
0.49810001 -0.79970002 -0.1218
-0.3197 0.55360001 -0.056150001
-0.16509999 0.1489 0.05012
0.46880001 0.56959999 0.13259999
-0.3581 0.1224 -0.22149999
-0.121 0.59939998 0.30450001
-0.4774 0.3466 -0.088079996
-0.417 0.30689999 -0.25310001
-0.37720001 0.58490002 -0.30500001
-0.0066140001 0.2145 -0.2572
-0.2264 -0.85570002 -0.40709999
-0.41229999 -0.86049998 0.2112
-0.36649999 0.71179998 -0.50260001
0.36379999 0.25330001 -0.31600001
-0.33579999 0.047699999 -0.044750001
0.36449999 0.36489999 0.31990001
0.2165 0.4932 0.2358
-0.2687 0.4657 -0.405
-0.45649999 0.68510002 0.34580001
0.1761 0.73379999 -0.61479998
-0.61339998 0.7101 -0.094300002
0.29370001 0.35569999 0.38460001
0.15790001 0.049660001 -0.3062
-0.46560001 0.24860001 -0.1304
0.16240001 -0.38049999 0.074919999
-0.4702 0.61409998 -0.1432
-0.38749999 -0.77310002 -0.2414
0.52630001 0.68080002 -0.2007
-0.2766 0.1496 -0.3398
-0.1362 -0.84249997 -0.45519999
-0.52539998 0.69260001 -0.28799999
0.1636 0.15270001 0.069920003
-0.1737 0.15009999 0.0217
-0.2538 0.39829999 0.2071
-0.2026 0.68190002 -0.3143
-0.2413 0.252 -0.1469
-0.2678 -0.8423 0.38420001
0.0088029997 -0.86309999 -0.4637
-0.20559999 0.21170001 -0.42340001
-0.15019999 -0.0042650001 0.1524
-0.39950001 0.1087 -0.1004
-0.1805 0.18970001 -0.1432
-0.03554 -0.05015 0.14309999
-0.42899999 -0.8678 0.1551
-0.063950002 0.6839 0.36750001
-0.033349998 0.1192 -0.41589999
-0.17649999 0.006602 -0.16769999
0.36340001 -0.82959998 0.39860001
0.1155 -0.35839999 0.1067
0.42129999 -0.84909999 0.30219999
0.1102 0.79360002 -0.50590003
-0.32480001 0.76819998 -0.29679999
-0.51069999 0.75919998 0.36739999
0.21349999 0.02156 0.17730001
-0.1247 -0.44119999 -0.1418
-0.1665 -0.02451 -0.01467
0.43090001 0.20900001 -0.1811
-0.23370001 -0.86699998 -0.39809999
0.3229 0.77130002 -0.54159999
-0.1517 -0.48649999 -0.05336
0.1349 0.7784 0.60949999
-0.42809999 -0.84249997 0.2006
-0.077660002 -0.065480001 -0.1225
0.1008 0.52679998 0.47490001
-0.27149999 -0.82870001 -0.46880001
0.3513 -0.8671 0.26030001
-0.01319 -0.1373 -0.1375
-0.1001 -0.08185 0.1021
0.35710001 0.73559999 0.1992
-0.094449997 0.4413 -0.47659999
0.25040001 0.7112 0.56889999
-0.29359999 0.3098 0.082079999
0.44100001 -0.76740003 0.038959999
0.3405 0.4138 0.34869999
-0.2121 0.76889998 -0.3883
0.1079 -0.55479997 0.026240001
-0.48980001 -0.84069997 -0.01847
-0.52060002 0.6846 0.23639999
0.26480001 0.1767 -0.36700001
-0.2414 0.29530001 0.1758
-0.33039999 -0.8211 -0.4208
0.42109999 0.78820002 0.43880001
-0.4131 0.26660001 0.2559
-0.47799999 0.66509998 0.2438
0.58029997 0.7834 -0.2033
0.45030001 -0.7949 0.22310001
0.1798 -0.4005 0.063699998
-0.47659999 0.50550002 -0.094219998
0.0056469999 0.1433 -0.4366
0.36399999 0.74040002 0.1939
-0.33329999 0.73710001 0.54320002
-0.064510003 0.77170002 0.62339997
-0.49649999 0.6649 0.1981
-0.4348 0.1628 0.1089
0.094339997 0.4657 0.4756
0.33719999 -0.81510001 0.4095
0.2101 0.80159998 -0.54030001
-0.089620002 -0.45109999 -0.1602
-0.2559 -0.74650002 -0.2194
0.2427 0.2947 0.42379999
0.28080001 0.64920002 -0.43040001
-0.27790001 -0.861 -0.36849999
0.1803 0.48449999 0.26390001
-0.14669999 -0.83679998 -0.52029997
-0.42460001 0.2263 0.2174
0.01895 -0.74580002 -0.3355
0.48660001 0.29769999 -0.01476
-0.37349999 0.73079997 -0.1513
-0.38170001 0.081540003 -0.0206
0.29030001 0.2773 -0.028279999
-0.35839999 0.7543 -0.2288
-0.2264 0.6972 -0.56370002
-0.4375 -0.84670001 0.2658
0.2642 0.76160002 0.33849999
-0.31850001 0.1076 -0.25580001
0.35260001 0.29769999 0.3353
0.28220001 0.036729999 -0.1367
0.32589999 0.80119997 0.48140001
0.19949999 0.71439999 0.33829999
-3.2e-05 0.80070001 -0.56819999
-0.2438 0.16320001 0.37450001
-0.2538 0.3951 -0.2071
0.1688 -0.4691 -0.035810001
0.1126 0.49919999 -0.2994
0.22409999 0.53600001 -0.43200001
-0.5036 -0.84869999 -0.1284
0.31850001 0.80190003 0.48320001
0.13259999 0.1148 -0.39269999
0.1494 0.57209998 -0.29069999
0.067749999 -0.061900001 0.1283
0.27900001 0.2499 -0.018789999
0.46180001 0.2088 -0.072570004
-0.3964 0.156 -0.19750001
-0.046700001 0.31380001 0.2999
0.46020001 -0.77499998 -0.024660001
0.6214 0.76770002 0.085610002
-0.25369999 0.064499997 -0.26230001
0.41980001 -0.85619998 -0.19410001
0.046840001 0.7766 0.4612
0.15880001 0.2403 0.22400001
0.31889999 0.55369997 -0.055969998
0.1682 0.28690001 0.24259999
-0.56290001 0.78500003 0.2374
0.37990001 0.1485 -0.2229
0.1158 0.13330001 -0.093900003
0.034109998 0.7403 -0.41010001
0.2465 0.67790002 0.5018
-0.35030001 0.70999998 0.1701
0.3443 0.73180002 -0.2148
0.1745 -0.838 -0.44670001
0.1745 0.77999997 0.44080001
0.22239999 0.70779997 0.57679999
0.16850001 -0.01258 0.086659998
-0.095579997 -0.54189998 0.06944
0.1842 -0.4249 0.070830002
-0.39680001 0.1175 0.1278
-0.3418 0.24680001 -0.3418
-0.032820001 0.24420001 0.27430001
0.2834 0.26249999 -0.032820001
-0.03743 0.25819999 0.2807
-0.1122 0.4991 0.29879999
-0.1595 -0.4876 0.01032
-0.14929999 0.1407 0.40549999
-0.1005 -0.75520003 -0.37189999
-0.60509998 0.79009998 -0.0088889999
0.39879999 0.77429998 0.23010001
-0.036389999 0.67070001 0.5449
0.34990001 0.18080001 -0.2904
0.36129999 0.67119998 0.055470001
0.072470002 -0.16 -0.116
-0.17730001 0.63340002 0.29809999
-0.26269999 0.61409998 0.2062
0.50950003 0.79509997 0.30840001
-0.37020001 -0.76709998 -0.2422
-0.1719 0.54519999 0.45269999
0.2581 0.01449 -0.036430001
-0.40880001 0.4779 -0.2638
-0.2638 0.30379999 -0.40880001
0.3432 0.191 -0.30759999
-0.1269 0.62199998 0.4804
-0.1552 0.0062099998 0.1849
0.31940001 0.57319999 0.064829998
-0.2969 0.75440001 0.5589
-0.40580001 0.18970001 0.2193
-0.4535 0.31600001 0.17219999
0.17219999 0.52679998 -0.4535
-0.2096 0.4535 0.43689999
0.2304 0.3344 -0.4294
-0.45609999 0.53600001 0.16590001
0.1848 0.58179998 -0.4483
0.1329 0.4718 -0.4698
-0.4535 0.4993 0.17219999
0.36840001 -0.85879999 0.27779999
0.37990001 0.70770001 -0.073799998
-0.417 0.43520001 -0.25310001
-0.15260001 -0.73689997 0.03661
-0.54220003 0.77090001 0.32280001
0.25389999 -0.86729997 -0.36340001
0.2236 0.2165 0.1305
-0.000136 0.1603 0.1903
-0.055440001 0.26530001 0.2818
0.1294 0.1203 -0.0097390004
0.28029999 0.07378 0.2445
-0.39750001 0.1019 -0.069920003
-0.2088 0.54460001 0.2466
-0.1824 0.5363 0.266
-0.4129 0.55430001 0.25839999
0.1934 -0.82990003 -0.50190002
-0.27540001 -0.8448 -0.42219999
-0.266 0.69239998 0.53380001
-0.026869999 -0.38319999 -0.1787
0.4109 0.76310003 0.13410001
0.083870001 -0.6591 -0.01308
0.36199999 -0.86629999 0.28060001
0.3039 0.042350002 -0.1185
0.30720001 0.75760001 -0.29969999
0.36160001 0.20919999 -0.29859999
-0.34110001 0.59390002 -0.34940001
0.2191 -0.78619999 -0.43149999
-0.30970001 0.53600001 0.3723
0.38679999 0.1904 -0.25029999
0.14 0.16949999 0.14920001
0.289 0.66070002 -0.2146
0.28080001 -0.82300001 -0.4596
0.49829999 0.64039999 0.081730001
0.46380001 0.3802 -0.1452
-0.39899999 -0.83630002 -0.36340001
-0.1137 -0.0045850002 0.17990001
0.46610001 0.78030002 0.4118
-0.31020001 -0.74519998 -0.1186
0.1286 0.79449999 0.50569999
-0.2233 0.28600001 0.19419999
-0.29750001 -0.75739998 -0.26089999
-0.18700001 -0.83020002 0.5043
0.4553 0.3344 -0.1656
0.3599 0.76910001 0.51450002
-0.34689999 -0.82440001 0.4095
-0.093850002 0.27739999 0.27680001
0.34850001 -0.86760002 -0.28420001
-0.2137 0.6706 0.29699999
-0.44940001 -0.77759999 -0.1275
0.4686 0.77969998 -0.064329997
-0.47170001 0.3985 0.1266
-0.4183 0.21799999 0.2256
-0.25670001 0.15090001 -0.35609999
0.63249999 0.74250001 -0.048080001
0.26300001 0.2286 -0.055429999
0.50639999 0.7299 -0.38240001
0.42590001 0.34349999 -0.23630001
-0.27520001 0.7816 0.39199999
0.1233 0.13330001 -0.41060001
0.39899999 0.1957 -0.2387
0.17200001 0.1903 -0.4258
0.2361 0.081809998 -0.29960001
0.4774 0.37099999 -0.081380002
0.09708 -0.308 -0.080250002
-0.01231 -0.84859997 0.1515
-0.03627 -0.7295 -0.1212
0.1673 0.1954 0.16769999
-0.42739999 -0.86699998 0.085380003
-0.3955 0.2622 0.2775
-0.44139999 -0.86750001 0.074529998
0.4765 0.57260001 -0.087949999
0.13079999 0.17560001 0.1683
-0.3653 0.34349999 0.32049999
0.23549999 -0.83639997 -0.48390001
0.2498 0.59609997 0.2119
-0.1453 0.59079999 0.4639
-0.1055 -0.72860003 -0.063249998
-0.15019999 -0.4851 -0.060120001
0.60219997 0.71200001 -0.1718
-0.39399999 -0.86769998 0.22920001
0.1737 -0.75590003 -0.3443
0.6275 0.7141 0.000176
0.4691 0.38929999 -0.1327
0.44659999 -0.84750003 0.2823
0.1549 0.046810001 0.30019999
-0.1247 -0.35530001 -0.088909999
0.39129999 0.099749997 -0.098980002
0.055640001 0.2089 0.24439999
0.4314 0.62360001 0.24969999
-0.41839999 0.73720002 0.47760001
-0.4368 -0.80140001 -0.2726
0.48120001 -0.84930003 -0.2102
0.34760001 0.74470001 0.22750001
0.1736 -0.76539999 -0.39899999
-0.35749999 0.4443 0.33059999
0.28929999 0.51840001 -0.3892
-0.48190001 0.78250003 0.033879999
-0.3177 -0.84280002 0.4269
-0.33239999 -0.74779999 0.1005
0.022500001 0.53670001 -0.48609999
0.30489999 0.31600001 -0.37720001
0.168 0.01291 0.19499999
-0.22750001 0.7202 0.3224
-0.023600001 0.5126 0.3197
0.42309999 0.75489998 0.02809
-0.37720001 0.49020001 0.30489999
-0.25920001 -0.74800003 0.2287
-0.1812 0.076760001 0.33180001
0.084519997 0.2947 0.28659999
0.4641 0.79280001 0.2159
0.27129999 0.19069999 -0.37079999
0.2352 0.1627 -0.38080001
0.2156 0.76319999 -0.37630001
0.1631 0.212 0.44060001
-0.50120002 0.7895 -0.3369
0.20039999 -0.84280002 0.42480001
-0.37380001 0.13339999 -0.2121
0.5499 0.80019999 -0.11
-0.1008 0.426 0.47510001
-0.32339999 -0.7924 -0.37779999
-0.1211 0.2401 0.2466
0.1016 0.7105 0.377
0.1411 0.0062040002 0.1957
0.27399999 0.32359999 -0.13940001
-0.42950001 -0.86750001 -0.1461
-0.32139999 0.55409998 0.043120001
-0.40920001 -0.84259999 -0.245
0.088059999 0.4077 -0.4774
0.046519998 0.2128 0.24959999
-0.064690001 0.63139999 0.3371
-0.1585 0.20389999 0.4375
0.37920001 0.74370003 -0.16769999
0.3312 0.801 -0.45840001
0.3497 0.78140002 0.331
-0.3466 -0.7827 -0.32859999
-0.045460001 0.065520003 0.3608
-0.027729999 0.75849998 -0.6318
0.48710001 0.4993 -0.0084520001
-0.2359 0.72109997 0.3168
0.064860001 -0.2983 -0.1088
0.2362 0.74559999 -0.58710003
-0.1577 -0.36129999 -0.026969999
0.068680003 -0.41330001 0.18539999
-0.3355 0.2334 -0.34400001
-0.1367 -0.096660003 0.038430002
-0.2113 0.35460001 0.23800001
0.53500003 0.69859999 0.30129999
-0.2353 0.154 0.3748
-0.35929999 -0.79290003 -0.35069999
-0.2349 0.2096 0.4093
-0.1724 -0.77640003 0.42930001
0.28639999 0.26769999 -0.02822
0.2428 0.426 -0.42390001
0.1428 -0.3678 -0.089249998
0.1143 -0.4851 0.1143
0.44859999 -0.83789998 -0.1681
0.46610001 0.68379998 0.32910001
-0.33059999 0.1132 0.2467
-0.2827 -0.8624 0.3644
-0.37310001 0.3436 0.31029999
-0.3653 0.44440001 0.32049999
0.49180001 0.66680002 0.21870001
-0.1109 -0.42739999 0.16240001
0.3723 0.51770002 -0.30970001
0.037409998 0.61199999 0.32949999
0.34020001 -0.81959999 0.41249999
0.1043 -0.1603 -0.086609997
-0.3425 0.76069999 0.25909999
-0.1752 0.48159999 0.26820001
0.32890001 0.66369998 -0.41870001
0.26069999 0.68330002 0.50739998
-0.35929999 0.12800001 0.2264
0.32859999 0.61979997 -0.078560002
-0.1714 0.7119 0.3504
-0.34509999 -0.84439999 -0.31810001
-0.44139999 -0.76700002 0.026620001
0.017589999 0.70060003 0.61470002
0.60970002 0.69709998 0.01777
0.1636 0.73019999 -0.61790001
-0.47749999 -0.80489999 -0.1955
-0.0087670004 -0.3642 -0.16410001
-0.30050001 0.76279998 -0.5564
0.28940001 0.66479999 -0.45140001
-0.01305 -0.8344 0.54110003
0.074500002 0.1613 0.1769
-0.31779999 0.77160001 -0.54579997
0.017729999 0.69840002 -0.38260001
0.054400001 0.73710001 -0.6329
0.34630001 0.60100001 -0.3461
-0.1147 -0.47670001 0.1232
-0.61549997 0.72539997 0.1665
-0.2489 0.2441 0.1238
-0.5255 0.69239998 0.28580001
-0.15549999 0.79290003 0.48949999
-0.44710001 0.20829999 0.14390001
0.36539999 0.60070002 -0.32100001
0.35069999 0.64249998 -0.0099269999
0.1173 -0.2334 -0.056000002
0.2306 -0.81339997 0.47589999
0.1981 0.080159999 -0.32640001
0.3608 0.76499999 -0.2418
-0.018850001 0.1389 0.1566
-0.27559999 0.25760001 0.39590001
0.36899999 0.25260001 -0.30899999
0.42219999 0.76450002 -0.1058
-0.4562 -0.77329999 -0.01811
-0.01794 -0.36829999 -0.1683
0.36269999 -0.84810001 -0.3696
0.44569999 0.20100001 0.13519999
-0.25409999 0.070799999 0.27059999
0.6189 0.77899998 0.062320001
-0.36379999 -0.86440003 -0.2827
-0.04527 -0.8294 -0.53659999
-0.2816 -0.8484 0.44690001
0.37450001 0.1462 0.2265
-0.30039999 0.048670001 0.1652
0.1011 0.28189999 -0.2766
-0.3633 0.7827 0.31959999
0.1798 0.77859998 0.59960002
0.29719999 -0.74730003 -0.176
-0.027899999 0.6688 0.3635
0.48679999 -0.83450001 -0.2317
-0.61080003 0.77969998 0.1187
0.46360001 0.21699999 0.091200002
0.4711 -0.84899998 0.2141
-0.105 0.79329997 -0.58770001
0.3071 0.061650001 -0.1901
0.5309 -0.8405 0.058940001
0.34760001 0.78179997 -0.33570001
0.3592 -0.81959999 -0.3973
0.1122 -0.52469999 0.0616
0.33579999 -0.86729997 0.30930001
-0.44710001 -0.84930003 -0.27340001
0.068899997 -0.26879999 0.1065
-0.099930003 -0.41510001 0.1734
0.1934 0.0506 -0.28709999
-0.36570001 0.76370001 0.2335
0.068070002 0.61510003 0.48480001
-0.43000001 -0.82539999 -0.32100001
0.1187 -0.8671 0.44479999
0.000116 -0.86760002 -0.4569
-0.032529999 0.096579999 0.072109997
0.205 -0.84600002 0.4874
0.081900001 -0.8351 0.53170002
0.3919 0.1638 0.2177
0.1453 -0.4179 -0.1367
0.028200001 0.704 -0.6171
0.27689999 0.02214 0.031800002
0.53740001 0.67519999 -0.14650001
0.24950001 0.6099 0.42210001
0.1653 -0.76620001 -0.40580001
-0.08647 0.70169997 0.60650003
-0.1047 -0.004917 0.18440001
-0.042750001 0.1221 0.1251
-0.1903 0.51279998 0.25740001
0.47670001 0.66399997 -0.242
-0.36750001 -0.86610001 -0.27669999
-0.40020001 -0.83039999 -0.3626
0.49270001 -0.84930003 0.1732
-0.1608 0.7924 0.4844
0.19930001 0.1381 0.38150001
0.088249996 -0.73680001 -0.1366
0.33950001 0.78359997 -0.34979999
0.36449999 0.78860003 -0.48190001
-0.42320001 -0.86669999 0.17990001
-0.57179999 0.80159998 0.04287
-0.51569998 -0.81720001 -0.1453
0.29390001 0.50370002 -0.1249
0.17990001 -0.8398 -0.44010001
0.33849999 0.80269998 -0.4666
0.2014 0.66549999 0.49630001
0.18520001 0.6207 0.45629999
0.090989999 0.639 0.4964
-0.1769 0.73519999 -0.61409998
0.1656 0.01539 -0.2041
0.1577 0.73449999 0.3734
0.4161 0.79159999 -0.28979999
0.1203 0.1611 -0.1497
-0.1823 0.01517 0.1902
-0.2464 -0.84140003 0.40259999
0.107 0.1151 0.056559999
0.39300001 0.77380002 -0.23469999
0.47440001 0.69379997 -0.36579999
-0.23109999 0.472 0.22499999
0.55150002 0.74580002 -0.3186
0.2402 0.2726 -0.1636
-0.3822 -0.838 0.29089999
0.1165 -0.033969998 -0.1066
-0.193 -0.80339998 0.47690001
0.153 0.6397 -0.48359999
0.44670001 0.1637 0.01774
-0.42699999 -0.86729997 -0.1626
-0.37810001 0.1178 0.1734
-0.031860001 0.02335 0.27970001
0.01578 0.068060003 -0.36739999
-0.50260001 -0.84570003 0.1692
-0.30140001 0.69099998 0.51270002
0.62260002 0.7295 0.12639999
0.28929999 0.079439998 -0.24519999
-0.077569999 -0.77420002 -0.4506
0.2538 0.058540002 -0.2527
-0.6117 0.77219999 -0.15530001
0.1279 0.084399998 -0.36289999
0.1189 -0.24240001 -0.04927
-0.43990001 0.15809999 0.05229
0.31959999 0.66640002 0.4321
0.064659998 0.69169998 0.58920002
0.04623 0.76239997 0.4276
0.086690001 -0.84460002 0.4594
-0.086259998 0.205 0.45829999
0.16760001 0.1971 0.43059999
0.34380001 0.6534 -0.38659999
-0.1114 0.1717 0.1754
-0.40869999 -0.8398 0.2491
0.14030001 -0.025420001 -0.0898
-0.0374 0.24600001 0.2746
0.28369999 0.26429999 -0.0374
-0.26530001 0.80129999 -0.5183
-0.061379999 0.77539998 0.6225
0.30649999 -0.84149998 0.36629999
-0.08055 -0.40470001 -0.1759
-0.059149999 0.1309 0.4201
-0.257 0.29120001 0.1521
0.22920001 0.19850001 0.07062
-0.054749999 0.79159999 -0.59649998
0.40349999 0.73769999 -0.064539999
-0.49540001 0.80180001 0.2924
0.29409999 0.29949999 -0.055440001
-0.01736 -0.8398 0.054540001
0.2525 -0.84719998 -0.44800001
0.19239999 0.47220001 -0.25729999
0.52209997 -0.84979999 -0.01829
0.13519999 0.61290002 0.3035
-0.13070001 -0.35249999 0.071079999
-0.27020001 -0.84680003 0.37970001
-0.45840001 -0.7748 0.022740001
-0.2366 0.71670002 0.5794
0.5499 0.70719999 0.2868
0.4779 0.63380003 0.1539
0.46160001 -0.8398 -0.1382
0.27630001 0.38479999 0.1745
0.54100001 -0.83560002 0.01331
0.2295 0.16140001 0.38409999
0.1237 0.49489999 -0.29429999
0.18709999 0.72920001 -0.35690001
0.31299999 0.079889998 0.2129
0.4219 -0.83829999 -0.23019999
-0.082319997 -0.8495 0.51810002
-0.16 -0.84069997 -0.449
-0.4012 -0.83759999 -0.26289999
