# .PCD v0.7 - Point Cloud Data file format
VERSION 0.7
FIELDS x y z
SIZE 4 4 4
TYPE F F F
COUNT 1 1 1
WIDTH 1597
HEIGHT 1
VIEWPOINT 0 0 0 1 0 0 0
POINTS 1597
DATA ascii
0.62599999 0.3766 -0.26140001
0.03655 0.3064 0.31799999
-0.67940003 0.084109999 -0.36129999
-0.63910002 -0.3759 -0.3809
-0.62220001 -0.1758 -0.36970001
0.64749998 -0.3143 0.33680001
0.78600001 0.2393 -0.193
0.7816 0.24590001 0.09826
0.38389999 0.2342 0.33410001
0.8089 -0.1661 -0.221
0.249 0.4113 -0.23989999
-0.43220001 -0.20290001 -0.065099999
-0.61900002 -0.3265 -0.38299999
0.43329999 -0.30559999 0.3793
0.54119998 -0.38159999 0.31580001
-0.18790001 -0.2086 0.024150001
0.7299 0.3513 -0.30039999
0.1195 -0.2088 0.3134
-0.41069999 0.155 -0.30520001
0.3739 -0.1946 0.2
0.88639998 -0.1018 -0.221
-0.65270001 -0.2705 -0.2814
0.1304 0.3743 0.26989999
0.2811 -0.2078 -0.2393
0.87410003 0.076820001 0.052639998
-0.30019999 -0.14820001 0.3689
0.5614 -0.078819998 0.2868
0.97060001 0.024189999 0.031610001
-0.078960001 0.38159999 -0.063139997
-0.7141 -0.34599999 0.2895
-0.78530002 -0.19400001 -0.28420001
0.2146 0.3743 0.26989999
-0.5722 -0.167 -0.34619999
-0.38139999 0.1776 0.31619999
0.60500002 -0.1021 0.2456
-0.9429 -0.09736 -0.059629999
-0.70380002 -0.090120003 -0.3267
0.3944 -0.070500001 -0.3741
-0.79400003 0.071450002 -0.33669999
-0.75300002 -0.02836 -0.3642
-0.93919998 -0.112 -0.01051
0.1629 -0.1409 0.3723
0.67220002 -0.2485 -0.33680001
-0.32980001 0.13600001 0.45829999
-0.30149999 -0.2085 -0.2216
-0.52109998 0.1134 -0.35229999
-0.92009997 -0.12630001 -0.23540001
0.48030001 -0.076449998 -0.28799999
0.58389997 0.3802 0.1999
0.40880001 -0.34029999 -0.34819999
-0.82840002 0.066930003 0.2057
-0.3994 0.1645 0.031569999
-0.61629999 -0.22660001 -0.2105
-0.19059999 0.32409999 -0.1149
-0.64740002 -0.3436 0.25600001
0.3901 0.4075 -0.2176
-0.79449999 0.074050002 0.073710002
-0.25040001 0.2782 -0.073679999
-0.5298 -0.056740001 0.2703
0.39559999 -0.1936 0.24609999
-0.653 -0.33520001 0.3714
-0.83639997 -0.199 0.26320001
0.3849 -0.1865 -0.2739
-0.68059999 -0.093180001 0.35769999
-0.0055220001 0.3712 -0.27599999
0.83649999 -0.038899999 0.36359999
0.63559997 -0.050579999 -0.37400001
-0.91799998 -0.1626 0.26280001
0.66390002 -0.2288 -0.2775
-0.2263 0.29629999 2.3000001e-05
-0.7123 -0.28060001 0.22679999
0.59649998 -0.12970001 -0.37889999
0.7313 -0.1442 0.3734
0.64249998 -0.1989 0.17900001
-0.69840002 -0.2211 0.22920001
0.03658 0.1696 -0.34979999
0.1833 -0.20810001 0.14480001
-0.65820003 0.096730001 -0.25260001
0.058499999 0.26300001 -0.32820001
0.1925 -0.2085 -0.3301
-0.56050003 -0.1548 0.41460001
-0.1437 0.36000001 -0.221
-0.47499999 -0.21789999 -0.3168
0.37279999 -0.1752 -0.36950001
-0.21430001 0.30500001 -0.2
0.70880002 0.36719999 0.25260001
0.4892 -0.1758 -0.2466
-0.65420002 -0.1232 -0.40040001
0.76289999 -0.1126 -0.3741
0.3418 0.39899999 0.2315
0.1103 0.28639999 0.32249999
-0.1459 0.1248 0.35929999
-0.5122 -0.071259998 -0.33070001
0.8175 0.1761 0.30180001
0.38859999 -0.1981 -0.1965
0.78179997 0.24590001 0.193
0.27869999 0.1596 -0.35210001
0.49070001 -0.2221 0.063170001
-0.21250001 -0.1411 -0.37220001
-0.6153 0.1041 -0.1684
-0.7687 -0.2182 0.27599999
0.56 -0.077059999 -0.2886
-0.69700003 -0.1425 0.35049999
-0.90490001 -0.01373 0.096989997
0.83780003 0.1336 0.070189998
-0.72299999 -0.06769 0.2737
0.27869999 -0.155 -0.36590001
0.26809999 0.1696 0.34979999
0.97060001 0.1295 0.05263
-0.50349998 -0.28099999 -0.33019999
0.3739 -0.1946 0.1053
0.56550002 -0.21709999 1.8000001e-05
-0.62690002 -0.072509997 0.28560001
-0.90280002 -0.17479999 0.13339999
0.85329998 0.065719999 -0.26320001
0.60009998 -0.31940001 0.3802
0.6706 -0.1088 0.30180001
-0.20190001 0.31420001 0.1895
0.54180002 -0.050719999 0.2518
-0.69319999 -0.2387 -0.41859999
0.77380002 -0.1837 -0.31580001
0.28920001 0.21950001 -0.3382
-0.2617 0.2685 -0.27360001
0.3734 0.36039999 -0.30489999
-0.36340001 -0.1232 0.3741
0.26109999 0.22669999 0.3355
0.02255 -0.14820001 -0.3689
0.6997 -0.1892 -0.0105
-0.0792 0.21950001 -0.3382
-0.40329999 -0.1961 -0.36410001
-0.82130003 0.067369998 -0.2419
-0.57389998 -0.042130001 -0.3263
0.1945 0.3484 -0.30849999
-0.86080003 -0.18529999 -0.15090001
0.1224 -0.2084 -0.213
0.63700002 -0.1319 0.36919999
-0.037110001 0.097479999 0.3642
-0.68409997 -0.2378 0.3405
-0.52399999 -0.1068 0.3581
-0.1453 -0.14740001 -0.36899999
0.58759999 -0.28259999 -0.3678
0.1524 0.04524 -0.36430001
0.1945 0.02416 0.36359999
0.38389999 0.045170002 0.36590001
-0.57389998 -0.1127 0.24600001
0.8071 0.1972 -0.1193
-0.34560001 0.1794 0.4206
0.36289999 0.01366 -0.36430001
-0.0055069998 0.382 0.06318
0.81550002 0.05576 0.3633
0.226 0.38249999 -0.052609999
0.47870001 0.066289999 -0.36430001
-0.50029999 0.02417 0.36430001
0.01553 0.05576 0.36430001
0.1629 0.38249999 -0.07367
-0.0055249999 0.38249999 -0.094719999
-0.037099998 0.38249999 -0.2
0.85100001 -0.1451 0.094750002
0.47870001 -0.1021 0.27289999
0.79299998 0.2253 -0.01753
0.29969999 -0.059829999 -0.3642
0.6997 -0.049490001 0.36430001
0.75230002 -0.1892 -0.073660001
-0.53170002 0.117 -0.09471
-0.1068 -0.20819999 0.02524
-0.87980002 0.044720002 0.08422
-0.3635 0.087219998 0.36410001
-0.66000003 -0.2396 -0.3847
-0.7626 -0.2216 -0.391
0.45609999 -0.042860001 0.34740001
0.1288 -0.20730001 0.2085
-0.02657 0.21160001 0.33899999
-0.64609998 -0.22220001 2.1e-05
0.72970003 0.3515 -0.2491
0.85949999 -0.038759999 -0.32280001
0.56290001 0.37940001 -0.2516
-0.60640001 -0.2253 -0.084190004
0.80500001 0.1172 0.36149999
-0.5837 -0.36340001 0.28619999
-0.3339 0.2142 -0.31569999
0.50419998 -0.34279999 -0.3784
-0.1095 -0.2075 0.1313
0.49970001 0.37760001 0.04219
-0.058169998 0.034650002 0.3651
-0.3915 -0.20630001 0.14659999
-0.02658 0.085840002 -0.3651
-0.54250002 -0.094230004 -0.29280001
-0.47929999 -0.1442 0.2463
0.58389997 0.37909999 -0.13699999
0.4892 0.39910001 0.23980001
-0.2897 -0.1971 -0.3642
0.001241 -0.2088 -0.20919999
0.76849997 0.2744 -0.09471
0.39649999 -0.082209997 0.2947
-0.91610003 -0.13410001 -0.28369999
0.85100001 -0.1451 -0.28420001
0.51059997 -0.2264 0.021059999
0.60500002 -0.20739999 -0.27289999
-0.25600001 0.27289999 0.1684
0.6189 -0.066189997 0.28330001
-0.1206 0.3689 0.14740001
-0.053369999 0.26980001 0.32609999
-0.4294 0.1415 -0.2
-0.46520001 -0.2385 0.3497
-0.84890002 -0.19410001 0.36399999
0.45609999 -0.042860001 -0.3263
0.4709 -0.077909999 0.31580001
0.89039999 -0.07886 -0.3159
-0.44589999 -0.2031 0.25470001
-0.66659999 -0.3689 -0.2911
0.49970001 0.3387 -0.3107
0.28920001 0.3387 -0.3107
0.55089998 -0.1969 -0.3628
-0.3696 0.1873 0.13770001
0.66900003 0.27790001 -0.32480001
0.38389999 0.28650001 -0.32280001
-0.62540001 0.1021 0.27360001
0.85759997 -0.091590002 -0.3741
-0.75059998 -0.28279999 -0.39109999
-0.72119999 0.085919999 0.031599998
0.068159997 0.1173 -0.36179999
0.59530002 0.141 -0.3563
-0.76340002 -0.02846 0.36390001
-0.32890001 0.1513 -0.36610001
-0.57130003 -0.21699999 -0.03156
-0.66820002 0.095210001 -0.063129999
-0.89749998 0.022159999 -0.1684
-0.76099998 -0.1763 0.25209999
0.45829999 -0.2145 0.1684
-0.089730002 0.36390001 -0.3003
-0.13609999 -0.2088 0.32789999
-0.056419998 -0.2088 0.3335
-0.31349999 -0.2078 -0.01211
0.87410003 0.1295 0.12630001
0.44260001 -0.1917 0.3619
-0.31690001 0.2269 0.33070001
0.36649999 -0.26910001 -0.29570001
-0.90490001 -0.061549999 0.34670001
-0.47189999 -0.1044 0.3193
-0.59609997 -0.34419999 0.39820001
0.4892 0.38249999 -0.221
-0.7191 -0.064089999 0.37090001
-0.72610003 -0.1187 -0.36579999
0.60229999 0.38530001 0.24079999
-0.63660002 -0.27509999 0.3626
-0.93089998 -0.08004 0.15790001
-0.62400001 -0.18629999 0.26030001
-0.60589999 -0.3829 0.32609999
0.061129998 -0.06972 0.36739999
-0.63609999 -0.2246 -0.15790001
0.1138 0.1846 0.34619999
0.55040002 -0.2207 -0.07367
0.43709999 -0.1903 -0.36160001
0.61549997 0.3766 -0.0526
-0.1207 0.36919999 -0.04208
-0.53530002 -0.052060001 -0.36399999
-0.55470002 -0.34419999 -0.354
-0.63609999 -0.2246 0.094750002
0.71020001 -0.1758 -0.3741
0.426 0.192 0.3443
0.47870001 0.002388 -0.36590001
-0.3687 0.1867 -0.052620001
0.32690001 -0.2053 -0.19660001
-0.4795 -0.1954 0.14740001
0.2852 -0.2088 0.31940001
-0.53179997 -0.19679999 0.2462
-0.59490001 0.1064 -0.084190004
0.1734 0.38249999 0.1895
0.56290001 -0.22840001 0.27289999
0.036570001 -0.059829999 -0.3642
0.1208 0.2018 -0.3423
-0.21600001 0.21950001 -0.3382
-0.05816 0.1696 -0.34979999
-0.31549999 0.228 0.094740003
0.47870001 -0.20739999 0.27289999
-0.7518 0.081160001 -0.2105
-0.32749999 -0.2088 0.34909999
-0.3529 -0.1654 0.36430001
0.54180002 0.25420001 -0.33019999
0.3926 -0.13330001 -0.29100001
0.63660002 -0.1442 -0.2466
0.8524 0.097439997 -0.1575
0.83700001 -0.1521 -0.094719999
0.78079998 -0.1802 -0.1895
-0.55489999 -0.29159999 0.29910001
0.7949 -0.17309999 0.3263
0.76139998 0.26269999 0.3281
-0.34509999 0.1397 0.40059999
0.96520001 -0.036940001 0.2164
-0.47870001 0.12630001 -0.3263
-0.31079999 0.1494 0.35339999
-0.48500001 -0.21870001 0.40779999
-0.73119998 0.083640002 0.2105
-0.51709998 0.1204 0.29480001
0.32080001 0.38249999 -7.0000001e-06
-0.73089999 -0.12620001 0.2818
-0.2308 -0.2088 0.33410001
0.47049999 0.27759999 0.32429999
-0.2978 0.24089999 -0.063150004
0.1734 0.37990001 0.25170001
0.62410003 -0.1152 -0.28639999
-0.1846 -0.1232 0.3748
0.66500002 -0.2798 0.31580001
-0.1003 0.1075 -0.36340001
-0.58170003 -0.34400001 -0.2483
-0.93709999 -0.086240001 0.043000001
0.92079997 0.1349 0.21520001
0.51069999 -0.22840001 -0.36849999
-0.42660001 0.087329999 0.36410001
-0.76359999 -0.1011 -0.34729999
0.72960001 0.35139999 -0.1754
-0.77689999 0.075910002 0.17900001
-0.80449998 0.071050003 0.26300001
0.66750002 0.38080001 -0.1789
-0.92009997 -0.062369999 -0.2106
0.14560001 -0.20739999 0.36320001
0.53039998 -0.2254 0.14740001
0.41909999 -0.28049999 -0.3795
0.26820001 0.37909999 -0.1894
-0.86619997 0.042860001 -0.32570001
-0.9267 -0.1622 0.073689997
-0.71759999 -0.33250001 0.34119999
-0.4788 0.1269 0.12630001
0.73040003 0.1261 0.3594
-0.3845 -0.1339 -0.37380001
-0.25749999 -0.1125 -0.37529999
0.64709997 0.087339997 0.3633
0.047109999 0.38150001 -0.1895
-0.0096199997 -0.208 -0.019269999
0.39449999 0.38249999 0.2105
0.97180003 0.003363 0.12630001
0.33140001 0.066310003 0.3646
-0.43810001 -0.083980002 0.37279999
0.76109999 -0.1883 0.2316
0.3734 0.38249999 -0.1158
0.43090001 -0.208 -0.1123
0.50319999 0.1846 0.34619999
0.1945 0.38240001 0.073679999
0.52079999 0.38069999 -0.085259996
0.67869997 0.024180001 -0.36430001
0.1313 0.38249999 0.094750002
-0.82660002 -0.199 0.05263
0.49970001 -0.042130001 0.3369
0.54180002 -0.1547 -0.27289999
-0.31079999 -0.038970001 0.36430001
-0.72130001 0.034710001 0.36430001
0.1313 0.05576 0.36430001
-0.026590001 -0.01792 -0.36430001
-0.33340001 0.2137 -0.2421
-0.1108 0.034710001 0.36430001
0.85229999 0.034740001 0.28420001
0.58389997 -0.32319999 -0.27289999
0.58389997 -0.24950001 -0.27289999
0.74180001 -0.1892 -0.12630001
0.1208 0.38249999 -0.12630001
0.4576 -0.1021 -0.2466
-0.65810001 -0.042130001 0.3369
0.4576 -0.24950001 -0.27289999
-0.50019997 0.0031409999 -0.36430001
0.47870001 0.045249999 0.36390001
0.57340002 0.01372 -0.36430001
-0.058169998 -0.1654 -0.36430001
0.1839 -0.1021 -0.3741
-0.36309999 0.191 -0.13680001
-0.1003 0.1494 0.35339999
0.3962 -0.1999 -0.052609999
-0.27340001 0.25960001 0.073700003
-0.56389999 -0.21520001 0.02107
0.42750001 -0.1146 0.2755
-0.0055260002 0.3387 -0.3107
0.57340002 0.3064 -0.31819999
-0.4788 0.1269 -0.03156
-0.27149999 -0.2079 0.21879999
-0.54189998 0.1164 0.12630001
0.0050059999 0.25420001 -0.33019999
-0.7306 -0.2024 0.01054
0.76289999 -0.1127 0.37369999
0.54180002 0.1075 -0.36340001
-0.098399997 0.37670001 -0.2105
0.3418 0.38 -0.2518
0.0471 0.37970001 -0.25170001
-0.86809999 -0.18350001 -0.084190004
0.1245 -0.2076 -0.1103
0.60750002 -0.2396 -0.36880001
0.21529999 0.38150001 -0.2418
0.87410003 0.055769999 0.01054
0.64700001 -0.25999999 0.27309999
0.2208 -0.2087 0.3594
-0.6476 -0.070349999 0.24609999
0.1945 0.2439 0.33160001
-0.25819999 -0.01792 0.36430001
0.33129999 0.3766 0.042210001
0.87410003 0.087350003 0.15790001
0.68290001 -0.1442 -0.2633
0.3928 -0.1392 0.28259999
-0.037099998 0.38249999 -0.01051
0.73339999 0.34450001 0.080710001
0.34240001 -0.083240002 -0.3739
0.75230002 0.055739999 0.36410001
0.84570003 0.12 -0.01753
-0.30410001 -0.2079 0.28889999
-0.17299999 0.33739999 0.28420001
-0.57270002 -0.2291 -0.3466
-0.68339998 -0.1539 -0.41409999
-0.77499998 -0.1105 0.28420001
0.67089999 -0.2008 -0.36860001
0.6085 0.36109999 0.30410001
-0.51380002 -0.23289999 -0.32800001
0.62599999 0.37889999 0.1894
0.63660002 0.2119 -0.34
0.6997 -0.076629996 -0.3705
-0.1424 -0.0495 -0.36430001
0.60769999 -0.2071 1.5e-05
0.55809999 -0.21879999 0.042119998
-0.16339999 0.1846 -0.34619999
0.56550002 -0.21709999 -0.1789
0.3536 -0.1242 0.33680001
-0.86570001 0.051320001 0.2207
-0.72119999 0.085249998 0.12630001
-0.6548 -0.2201 -0.2384
0.56300002 -0.1561 -0.3669
-0.46869999 0.1285 0.2211
0.37529999 -0.29300001 0.32280001
-0.83829999 0.063660003 -0.01052
-0.69120002 -0.094860002 -0.37200001
0.36289999 0.37670001 0.26120001
0.1848 0.1336 -0.35800001
0.26809999 -0.155 0.36590001
0.76109999 -0.1883 0.094760001
-0.68120003 0.087549999 0.3592
-0.87779999 0.0026990001 -0.36399999
-0.53649998 -0.2088 -0.1684
-0.78860003 -0.1937 -0.37200001
0.1864 -0.20829999 0.01572
0.65759999 0.1075 -0.36340001
0.1629 0.1075 0.36340001
0.7313 -0.028449999 -0.36430001
0.089210004 0.36660001 0.2931
0.60259998 -0.051210001 0.3723
0.4892 0.3822 -0.1158
0.6778 -0.1911 0.094750002
-0.53329998 -0.1337 -0.34400001
-0.92079997 -0.085840002 0.31569999
0.39789999 -0.083870001 -0.2622
-0.3705 0.15109999 0.3581
0.43650001 0.37709999 0.14740001
0.58069998 -0.050280001 -0.25330001
0.4576 0.37709999 0.06312
0.45910001 -0.3721 0.34740001
-0.74070001 -0.303 0.26109999
0.46810001 -0.1758 0.2466
0.60030001 -0.2089 0.1158
-0.49430001 -0.1989 -0.01051
0.96340001 0.070720002 0.24250001
-0.105 -0.20819999 0.2744
-0.61519998 0.1031 0.1158
-0.088789999 -0.2076 0.094489999
0.38389999 0.2269 -0.33649999
0.84390002 -0.14839999 0.3664
-0.93709999 -0.086240001 -0.14650001
-0.65439999 -0.3021 0.2527
0.54180002 -0.1443 0.2463
0.22570001 -0.2086 -0.01336
-0.88450003 -0.17730001 0.32960001
0.047109999 0.38150001 0.094750002
0.66949999 -0.26609999 -0.29629999
-0.50400001 -0.30739999 0.39700001
0.84240001 0.02396 -0.09471
0.036589999 0.38190001 -0.021029999
0.1313 0.32879999 0.31259999
0.57340002 0.3766 -0.1788
-0.13 0.36610001 0.052639998
0.05762 0.034699999 0.36430001
-0.01605 0.1696 -0.34979999
-0.80549997 -0.199 0.01053
0.1629 -0.0495 -0.36430001
0.78240001 0.2462 0.2351
0.1418 0.38249999 1.5e-05
0.83160001 0.1481 -0.28420001
0.51029998 0.3766 0.1789
0.88050002 -0.1275 -0.31580001
0.67869997 0.244 0.3321
-0.4461 0.13330001 -0.1158
-0.58450001 -0.06024 -0.2466
0.39899999 -0.3299 0.3053
0.4576 -0.1442 0.27289999
-0.19499999 -0.1654 0.36430001
-0.65810001 0.04524 -0.36430001
-0.616 -0.042130001 -0.3263
0.32080001 -0.155 -0.36590001
0.77340001 0.034710001 -0.36430001
0.25760001 -0.038970001 0.36430001
-0.63709998 0.04524 0.36430001
-0.1318 0.034710001 -0.36430001
-0.026559999 0.38150001 0.1684
-0.054639999 0.36129999 0.30469999
-0.2617 0.2685 -0.1684
0.82599998 0.09747 -0.3642
0.54180002 0.192 -0.34450001
-0.58780003 -0.08743 0.39320001
0.97060001 -0.017890001 0.03159
0.5007 -0.2245 -0.063139997
-0.69910002 -0.095080003 0.2969
-0.3461 0.1301 -0.40849999
-0.19499999 0.28650001 -0.32280001
0.60500002 -0.32319999 0.27289999
0.226 0.38249999 -0.15790001
-0.1108 -0.1654 0.36430001
0.078680001 0.1596 -0.35210001
0.85360003 -0.03009 0.3263
-0.36359999 0.1917 0.17900001
-0.62550002 0.1004 0.31549999
-0.168 0.3414 -0.2737
-0.9102 -0.034529999 0.226
-0.79500002 -0.028449999 -0.36430001
0.83719999 -0.082560003 0.37360001
0.85259998 0.086819999 0.2316
-0.3091 0.1692 -0.43540001
-0.91420001 -0.030370001 0.03098
0.79949999 0.21089999 0.084229998
0.59460002 -0.25999999 0.3655
0.64700001 0.38150001 0.031399999
0.3933 -0.13150001 0.3263
0.76499999 0.2814 -0.2877
0.76849997 0.2744 -0.2421
0.62599999 -0.1548 0.2456
0.84509999 -0.027179999 -0.1017
-0.67830002 0.09296 0.27360001
0.41620001 -0.1115 0.36939999
-0.50520003 -0.127 -0.28600001
-0.67369998 -0.3671 0.27810001
0.32080001 0.28650001 -0.32280001
-0.87400001 0.048829999 0.04211
-0.38409999 -0.20810001 0.31569999
0.49000001 -0.3809 -0.30520001
0.33129999 -0.18629999 0.36430001
0.84869999 0.1132 0.1965
-0.2897 0.1919 0.34400001
-0.4869 -0.1971 0.042119998
0.1418 0.3712 -0.27599999
-0.92369998 -0.16769999 -0.0069949999
0.3671 -0.057349999 0.36809999
0.79439998 -0.02847 0.36390001
-0.6663 -0.077359997 0.31690001
-0.47780001 -0.09956 -0.26679999
-0.88739997 -0.1787 0.0105
0.83499998 0.141 0.3193
-0.27919999 -0.0495 -0.36430001
0.78039998 0.1772 0.34779999
0.39579999 -0.28839999 0.37850001
-0.52789998 -0.055240002 0.37169999
0.44229999 -0.088919997 -0.34729999
-0.59640002 -0.2229 0.1053
0.4743 0.1337 0.35800001
-0.40549999 0.15979999 0.12630001
0.80500001 -0.1337 -0.3741
-0.3319 -0.20730001 0.1188
-0.49520001 -0.2218 -0.2255
-0.62599999 -0.072070003 -0.2861
0.2393 -0.2085 0.25099999
-0.6476 -0.028410001 0.3741
0.056480002 -0.2075 -0.034619998
-0.8581 -0.1442 0.3739
-0.89359999 0.01155 -0.25189999
-0.91119999 -0.056990001 0.2782
-0.52149999 -0.3427 -0.28549999
-0.24339999 -0.2087 0.03802
-0.64719999 -0.38260001 0.3475
0.95859998 -0.079279996 0.1758
-0.1003 -0.1758 -0.36430001
-0.68849999 0.090790004 0.2
0.54040003 -0.223 -0.1473
0.3418 0.087360002 -0.36430001
0.8089 -0.1661 0.2105
-0.2687 -0.1232 0.3743
-0.59039998 -0.1232 0.2825
-0.13 0.36610001 -0.13680001
0.27430001 -0.20810001 -0.025180001
-0.80479997 0.072339997 0.1158
0.38440001 -0.14309999 -0.33680001
-0.454 0.131 0.094740003
-0.76969999 0.078129999 -0.1473
-0.058169998 -0.1654 0.36430001
0.33129999 -0.1021 0.3734
-0.49470001 -0.085479997 -0.36399999
-0.88690001 0.0136 0.3057
0.3619 -0.2438 0.32190001
0.97030002 -0.038959999 0.13680001
0.72079998 0.087339997 0.3633
0.50239998 -0.32620001 0.37650001
-0.93229997 -0.13869999 0.16580001
0.63020003 -0.2084 -0.37970001
0.34419999 -0.2088 -0.34909999
0.46700001 -0.2165 -0.12720001
-0.51800001 0.1194 0.34130001
0.70169997 0.37009999 0.16140001
0.76499999 0.2814 -0.1719
0.5844 -0.04386 -0.3263
0.1769 0.1846 0.34619999
0.76059997 0.28799999 0.16140001
0.24609999 -0.2088 0.32800001
0.54530001 0.1846 0.34619999
-0.72140002 0.0031570001 -0.36430001
-0.65060002 0.097060002 -0.0105
0.48359999 -0.1913 0.3601
-0.56779999 -0.01386 0.3716
0.80360001 0.2042 0.1719
-0.73089999 0.081249997 0.35550001
-0.57489997 -0.377 -0.3159
0.80010003 0.2112 -0.2316
-0.39500001 0.1075 -0.36340001
0.43110001 -0.20810001 0.024669999
0.29319999 0.38789999 0.2351
0.87410003 0.1189 0.063170001
0.44710001 -0.18629999 -0.2466
0.51020002 0.25400001 0.32929999
-0.64120001 -0.28060001 -0.37200001
-0.56590003 -0.2784 0.41159999
-0.92839998 -0.1556 -0.084229998
0.56290001 -0.18629999 -0.2466
-0.45469999 -0.1653 0.31580001
0.64429998 -0.052870002 0.37380001
0.30669999 0.35550001 0.30610001
0.32080001 0.37670001 0.26120001
-0.80549997 0.034699999 0.36430001
0.01154 -0.2088 -0.1252
-0.74199998 0.07361 -0.36309999
0.92079997 -0.086180001 0.1664
-0.90450001 -0.0042400002 -0.1132
0.3739 -0.1946 0.02107
-0.76090002 -0.22840001 -0.3319
-0.1542 -0.2071 0.36289999
0.81059998 0.1902 -0.02104
0.76059997 0.28799999 0.066679999
-0.80549997 -0.199 -0.33680001
0.53039998 -0.2252 0.23989999
-0.70410001 -0.1232 -0.3053
0.87540001 -0.059900001 0.1987
0.36750001 -0.1061 -0.2737
0.8211 0.1691 -0.084190004
0.8211 0.1691 -0.14740001
0.80360001 0.2042 -0.29120001
0.43810001 -0.1454 -0.37990001
-0.2318 0.29179999 -0.28420001
-0.45460001 -0.16509999 -0.2841
0.7313 0.192 -0.34450001
0.34529999 0.22669999 0.3355
-0.0792 0.1172 0.36149999
-0.3933 0.1681 -0.01055
0.61549997 0.2863 0.32210001
0.8962 -0.049240001 0.001742
0.89969999 0.1136 -0.01349
-0.62529999 0.1013 -0.29460001
-0.5959 -0.2705 -0.25490001
0.4366 0.37990001 0.25170001
-0.7676 -0.17820001 0.31169999
0.61409998 -0.1049 0.34029999
-0.315 0.111 -0.46349999
-0.68870002 0.091779999 -0.12630001
-0.27919999 -0.18629999 0.36430001
0.62949997 0.1846 0.34619999
-0.62400001 -0.1021 0.26010001
0.27869999 0.28619999 0.32179999
-0.58639997 -0.22059999 0.1895
0.1313 0.25389999 0.32929999
0.85070002 0.1062 0.1053
0.036540002 0.1595 0.35190001
-0.8671 0.05229 -0.1158
0.1313 -0.1339 -0.37380001
-0.1618 0.34580001 0.042130001
-0.74059999 -0.2 0.073700003
-0.60500002 0.1053 0.1895
0.6997 0.1497 0.35429999
0.57340002 0.1497 0.35429999
0.97100002 0.087360002 1.6e-05
0.85229999 -0.038910002 -0.020810001
-0.01718 0.04518 -0.36570001
-0.90740001 -0.01595 0.16769999
0.1594 -0.07677 0.37029999
-0.54170001 0.1156 -0.31569999
0.36289999 -0.20370001 0.34740001
-0.50950003 0.1218 0.2211
-0.51700002 0.1199 -0.031580001
0.85039997 0.1061 -0.2
-0.36309999 0.191 0.28420001
-0.38170001 0.178 0.095619999
0.71030003 -0.1892 -0.2421
-0.84310001 -0.19850001 -0.049109999
0.59530002 0.38060001 0.02087
0.63059998 -0.075829998 -0.2816
-0.41069999 0.155 -0.1053
-0.3994 0.1645 0.2737
-0.3994 0.1645 0.2105
0.3238 -0.2049 0.1179
-0.75089997 -0.13789999 0.31389999
0.52079999 -0.37220001 0.27689999
0.03658 0.32890001 -0.31290001
0.76779997 -0.1866 0.13689999
-0.71390003 -0.3567 -0.33230001
0.58149999 -0.3698 0.3263
-0.24429999 0.28310001 0.3053
0.55239999 -0.042130001 0.29480001
0.41949999 -0.063299999 0.33680001
0.88950002 -0.087070003 -0.12630001
-0.43709999 -0.08399 -0.37349999
0.9321 0.045200001 -0.031800002
-0.2142 0.3048 -0.2421
0.86659998 -0.02142 0.039700001
0.85470003 0.05579 -0.031569999
0.65759999 0.1497 0.35429999
0.93480003 -0.084069997 0.047279999
0.81410003 0.1832 -0.207
-0.71390003 0.087470002 -0.2105
0.4269 0.141 -0.3563
0.66720003 -0.19320001 0.01054
0.44710001 0.3612 -0.30469999
-0.90270001 -0.17479999 -0.214
-0.57880002 -0.21870001 -0.2105
-0.74059999 -0.2 -0.094719999
0.55190003 -0.23980001 0.36570001
-0.60549998 0.002386 -0.36590001
0.85290003 0.086839996 2.9000001e-05
-0.49990001 -0.24529999 0.43079999
0.33129999 0.3802 0.12639999
-0.6476 0.002386 -0.36590001
0.68870002 -0.18970001 -0.052609999
0.47819999 -0.2482 -0.36579999
-0.91159999 -0.1499 0.3502
0.54140002 -0.3716 -0.2775
0.38080001 -0.15000001 0.3572
0.56639999 0.2269 0.33649999
0.29969999 0.37760001 -0.14740001
0.30590001 -0.2088 0.1552
0.71020001 0.3064 0.31799999
-0.89410001 0.02905 -0.052620001
0.47870001 -0.042130001 -0.35780001
0.0050010001 0.38249999 -0.1684
0.71030003 -0.1892 0.2737
-0.87919998 -0.1232 -0.3741
0.205 0.38249999 0.1684
0.6997 -0.1892 0.15790001
0.2155 0.38249999 -0.094719999
0.078649998 0.3822 -0.14740001
0.1103 0.38249999 -0.052609999
-0.18449999 0.045219999 0.36430001
0.97100002 -0.049479999 0.06318
0.88279998 -0.093649998 0.2687
-0.83710003 -0.01792 -0.36430001
-0.8581 -0.02846 0.36390001
-0.5108 0.076810002 -0.36430001
-0.1529 -0.007394 -0.36430001
-0.23710001 0.05576 -0.36430001
0.1734 0.38249999 0.02107
0.205 0.087339997 0.36430001
-0.32120001 0.223 -0.1789
0.97079998 0.045249999 0.2
0.089199997 0.05576 0.36430001
0.1629 0.003149 0.36390001
0.47870001 0.3809 0.12639999
0.49970001 -0.21789999 -0.27289999
0.3734 0.0031320001 0.36430001
0.47870001 -0.31259999 -0.27309999
0.53130001 -0.24950001 -0.27309999
0.53130001 -0.042119998 0.35789999
0.6997 -0.1892 -0.1894
0.33129999 0.37760001 -0.1684
0.58389997 -0.19679999 0.27289999
-0.82660002 -0.1337 -0.3741
-0.71499997 -0.32789999 -0.40540001
0.40149999 -0.033160001 -0.36989999
-0.3003 -0.01792 -0.36430001
-0.058150001 0.38249999 -0.1158
0.1102 -0.007394 0.36430001
-0.068659998 0.086669996 -0.3646
-0.616 -0.042119998 0.35789999
-0.57389998 0.04524 -0.36430001
0.85159999 0.055780001 0.3263
0.31020001 0.0031369999 0.36390001
0.71020001 0.0031320001 -0.36430001
-0.36309999 0.191 -0.221
-0.2757 0.1322 0.35749999
-0.50029999 -0.1758 0.2458
0.4587 -0.214 0.2396
-0.81590003 0.055330001 -0.36430001
-0.93669999 -0.089319997 -0.2313
-0.62599999 -0.25999999 0.26589999
0.653 -0.2446 0.37990001
0.4682 -0.3732 0.2859
-0.068690002 -0.028449999 -0.36430001
-0.48899999 0.1247 -0.1053
-0.63849998 -0.34419999 -0.2748
-0.53969997 -0.36289999 -0.31169999
-0.17389999 0.09747 -0.3642
-0.91570002 -0.057289999 -0.079190001
0.82999998 -0.1556 -0.052609999
-0.5521 0.114 0.04211
0.78479999 0.141 -0.3563
0.62599999 0.1696 -0.34979999
0.426 0.076820001 0.36430001
-0.45809999 0.09747 -0.3642
0.9752 0.066249996 0.13680001
-0.6358 0.1006 -0.221
0.60500002 0.066289999 -0.36430001
-0.41119999 0.15549999 0.33680001
0.69010001 0.1261 -0.35980001
0.25760001 0.192 -0.34450001
-0.7956 -0.199 -0.2
-0.72729999 -0.2436 0.2207
0.43669999 -0.049079999 -0.35789999
0.56290001 0.1596 -0.35210001
0.80500001 0.066289999 -0.36430001
-0.18179999 -0.2084 0.064219996
-0.6983 -0.20999999 0.13689999
0.44400001 -0.3655 -0.3096
-0.83639997 -0.199 -0.2631
0.86650002 -0.066550002 0.13689999
-0.88770002 -0.1786 0.2316
0.3418 0.41159999 -0.2316
-0.64609998 -0.22220001 -0.073660001
-0.82660002 -0.199 0.1895
0.54180002 0.38029999 0.08523
0.51020002 0.087339997 -0.36430001
-0.5499 -0.3558 0.3876
0.31029999 0.3822 -0.2106
-0.91320002 -0.061840001 -0.2728
-0.24429999 0.28310001 -0.031550001
-0.27340001 0.25960001 -0.2316
0.35229999 0.32890001 0.31290001
-0.8096 -0.076839998 0.3723
0.59450001 0.2269 -0.33649999
-0.01692 -0.083789997 0.37259999
0.68919998 0.1846 -0.34619999
-0.1618 0.34580001 0.084229998
-0.060490001 -0.20739999 0.14569999
0.60030001 -0.2089 -0.1052
-0.44749999 -0.049400002 -0.3642
0.35010001 -0.2066 0.2423
0.54530001 -0.040770002 -0.37200001
-0.53649998 -0.2088 -0.021029999
-0.50639999 -0.07604 -0.271
-0.38100001 0.17749999 -0.30520001
-0.25600001 0.27289999 0.2105
-0.088660002 0.37900001 0.08422
0.46970001 -0.084169999 -0.37239999
0.59729999 -0.0055550002 0.36849999
0.60500002 0.3786 0.074890003
-0.78380001 -0.1242 -0.3263
0.4892 0.3822 -5.3e-05
-0.28549999 0.25029999 0.1158
0.55589998 0.32139999 0.3141
0.28569999 -0.076849997 0.37
0.036570001 0.1074 0.36320001
-0.22040001 -0.076580003 0.36930001
-0.058150001 0.31400001 -0.31639999
-0.1213 0.21950001 -0.3382
0.52069998 -0.070320003 0.31659999
-0.76959997 0.077639997 0.1053
0.89050001 -0.073789999 -0.245
0.87419999 0.1499 0.1576
0.68260002 -0.1339 0.3263
0.54180002 0.2766 0.3247
-0.86080003 -0.18529999 0.059670001
-0.62660003 -0.070649996 0.3263
0.68040001 -0.1236 -0.35080001
0.93129998 0.1789 0.1462
0.66180003 -0.1679 0.34729999
0.49970001 0.01371 0.36430001
0.391 0.35620001 0.30599999
0.6164 0.3919 -0.2128
-0.68080002 -0.042800002 -0.34729999
-0.058139998 0.38190001 0.2315
0.2269 0.2705 -0.3265
-0.226 0.29589999 0.063150004
-0.72299999 -0.067670003 -0.2737
0.65359998 -0.094810002 -0.32280001
-0.75809997 -0.096539997 0.34740001
0.1679 -0.2078 0.05618
0.85759997 -0.069410004 -0.1859
-0.45179999 -0.1547 0.36309999
0.51029998 -0.042130001 -0.33680001
0.2057 -0.2086 0.090829998
-0.59640002 -0.2229 0.06318
0.79479998 -0.17299999 -0.36629999
0.5205 -0.22660001 -0.2105
0.2642 -0.2088 0.278
0.66900003 0.3822 0.24429999
-0.45460001 -0.1653 0.26339999
-0.65649998 -0.17219999 -0.38260001
-0.3001 0.1173 -0.36179999
-0.48460001 -0.30919999 -0.30469999
0.96149999 -0.00045200001 -0.021819999
-0.068970002 -0.1021 0.37549999
0.3364 -0.2088 0.29089999
0.70169997 0.37009999 -0.080689996
0.35389999 -0.2014 -0.2861
0.97030002 0.097889997 0.2
0.1217 0.27790001 -0.32480001
0.64859998 -0.1419 -0.29049999
0.47870001 0.2018 -0.3423
-0.208 0.3096 0.25260001
0.333 -0.2052 0.020500001
0.37349999 -0.1653 -0.2466
0.5007 -0.2245 0.1684
-0.0352 -0.2076 0.248
0.1848 0.3741 -0.26989999
-0.78130001 -0.1963 0.084229998
-0.50639999 -0.07604 0.34999999
0.149 -0.20810001 -0.1781
-0.62650001 -0.044750001 0.26089999
0.829 0.1477 -0.35229999
-0.06673 -0.2085 -0.31619999
-0.70590001 -0.20810001 -0.1017
0.75590003 0.22679999 0.33610001
0.75309998 0.2703 -0.3265
0.6225 0.37369999 0.26859999
0.81550002 0.024180001 -0.36430001
-0.37329999 0.1409 -0.35620001
0.62489998 -0.2031 -0.13680001
-0.01956 0.177 0.347
-0.31659999 0.1499 -0.40180001
0.8847 -0.1213 0.1156
-0.83639997 -0.1988 -0.36649999
-0.19660001 0.3195 -0.1675
0.64359999 0.21950001 0.3378
0.2586 -0.2086 0.2181
-0.84899998 -0.1944 0.3017
0.63959998 -0.1295 0.33329999
-0.78119999 -0.1442 -0.2543
0.64929998 -0.28740001 -0.37720001
-0.78560001 -0.1442 0.35780001
0.45750001 -0.1348 0.38
0.59450001 -0.1758 0.2456
0.04355 0.21950001 0.3378
-0.2406 0.21950001 0.338
0.8387 0.134 -0.1719
0.6681 0.3612 -0.30469999
0.81669998 0.17569999 0.070189998
0.79299998 0.2253 -0.15440001
0.66229999 -0.16769999 -0.31580001
0.73979998 0.33019999 0.1193
-0.4781 -0.22220001 -0.25889999
-0.59579998 0.1012 0.35389999
-0.6778 -0.080859996 -0.3037
0.46110001 0.1846 0.34619999
-0.45919999 -0.19850001 -0.1902
0.82419997 0.1619 0.14030001
0.56650001 -0.3319 0.38
0.74040002 0.33050001 0.2035
-0.89529997 -0.17659999 0.1825
-0.4461 0.13330001 0.33590001
-0.68080002 -0.041639999 0.37180001
0.56290001 0.4005 0.2448
-0.68000001 -0.04513 0.26100001
-0.51179999 -0.1124 -0.3249
-0.1772 -0.2077 0.26089999
-0.01253 -0.1411 -0.37220001
-0.1027 -0.2088 -0.01028
0.64249998 -0.1989 -0.1684
-0.89529997 -0.17659999 -0.15440001
-0.84310001 -0.19850001 0.2246
0.88520002 -0.1209 -0.041949999
0.85210001 0.003155 0.2105
0.86650002 -0.06611 0.052839998
0.97079998 0.1295 0.15790001
-0.1108 0.29620001 0.3195
0.8502 0.073320001 0.36129999
-0.90280002 -0.17479999 -0.066639997
-0.1099 0.141 -0.3563
-0.87400001 0.048840001 -0.1684
-0.93760002 -0.093390003 0.24150001
-0.45469999 -0.1547 -0.33680001
0.59210002 -0.095710002 0.2811
0.50029999 -0.38249999 -0.34729999
-0.5521 -0.29429999 -0.34
-0.64340001 0.099289998 -0.1473
0.53119999 -0.092390001 -0.2737
0.46059999 -0.2309 0.359
0.40720001 -0.21160001 -0.37869999
0.47240001 -0.30950001 -0.36930001
-0.76340002 -0.07062 -0.3741
-0.55199999 0.1137 -0.1473
0.40459999 -0.1637 -0.37979999
0.1418 -0.1126 0.37369999
0.426 -0.1337 -0.27289999
-0.92159998 -0.1427 0.23119999
-0.6469 -0.38139999 -0.32600001
-0.86000001 0.054949999 -0.052609999
0.56550002 -0.21709999 0.2316
0.75230002 -0.1892 0.1684
-0.4614 0.12980001 0.01054
0.25760001 0.3215 -0.31470001
0.80190003 -0.1696 0.13689999
-0.83740002 0.053399999 0.3619
-0.36340001 -0.076629996 -0.3705
-0.32800001 0.2191 0.031599998
-0.90020001 -0.1232 0.37360001
-0.56160003 0.1112 -0.3443
-0.000222 -0.2045 -0.35170001
0.4682 -0.042119998 0.27379999
-0.90030003 -0.048300002 -0.3522
0.64249998 -0.1989 -0.063129999
-0.58759999 0.1086 0.2421
-0.76300001 -0.28490001 -0.33759999
-0.66350001 -0.1969 0.35069999
-0.58719999 -0.26030001 -0.35330001
-0.4233 0.1462 0.05266
-0.58160001 -0.2392 -0.2483
0.2572 -0.20810001 -0.26859999
0.5729 -0.21529999 0.094750002
0.5927 -0.21070001 -0.2
0.29879999 -0.2079 0.36309999
-0.59640002 -0.2229 0.2315
-0.1437 0.36000001 -0.1052
-0.91930002 -0.050039999 -0.042089999
-0.2897 0.2018 -0.3423
-0.51709998 0.1204 0.042130001
0.52319998 -0.1266 0.373
-0.7349 -0.1464 -0.39809999
0.5654 -0.082539998 -0.37079999
0.67290002 -0.2017 0.36570001
0.88609999 -0.046190001 0.2467
-0.73449999 -0.07711 0.3053
0.40380001 -0.3355 -0.3123
-0.40490001 0.15899999 -0.25260001
-0.2739 0.26019999 -0.30520001
-0.6983 -0.20999999 -0.1789
0.426 0.3064 -0.31819999
0.2366 0.3064 0.31819999
-0.93089998 -0.1375 -0.20280001
0.426 0.33860001 0.31040001
-0.55870003 -0.089960001 0.37439999
-0.49649999 -0.24950001 0.3263
-0.92769998 -0.14480001 -0.12630001
-0.4463 0.133 -0.04211
0.2015 0.36390001 0.3003
0.1945 -0.069750004 -0.36739999
0.64709997 0.2441 -0.33250001
-0.4993 0.1235 1.6e-05
0.51020002 -0.070550002 -0.30450001
-0.087630004 0.36939999 0.28459999
0.62989998 -0.16 -0.37970001
0.92079997 0.18170001 0.084239997
-0.36379999 0.1301 0.44729999
0.39969999 -0.31799999 -0.373
0.36179999 -0.2333 0.36520001
-0.80479997 0.072339997 0.01054
-0.50639999 -0.07604 0.2868
0.8502 0.003147 -0.36199999
-0.57249999 0.1102 -0.2316
0.97500002 0.017990001 0.08422
0.63459998 -0.082649998 0.25740001
0.84210002 -0.0073859999 -0.073660001
-0.76340002 0.045230001 0.36430001
0.52079999 -0.1021 0.27289999
0.49970001 -0.1021 0.2456
0.1129 0.1411 0.3563
0.95850003 0.1525 0.02393
-0.23710001 0.1596 -0.35210001
-0.66350001 -0.37670001 0.30950001
-0.87769997 -0.1811 -0.2631
-0.71160001 -0.05827 -0.33680001
0.77109998 0.2669 0.02458
-0.1424 -0.1232 0.37450001
0.74360001 0.32339999 -0.16140001
0.3743 0.37900001 -0.03142
0.3524 0.3784 -0.074749999
-0.79570001 -0.19859999 0.28349999
0.42429999 -0.2696 0.3793
0.4201 -0.34940001 0.329
-0.58780003 -0.1964 -0.3536
-0.79500002 -0.1021 -0.3741
-0.94349998 -0.092929997 0.18790001
0.88190001 -0.1277 -0.1468
-0.19410001 -0.2087 0.29370001
-0.5751 -0.07423 -0.33739999
0.88480002 0.14219999 0.20559999
-0.61870003 -0.092189997 -0.25979999
0.56290001 0.0137 0.36410001
0.6189 -0.066189997 -0.31659999
0.52079999 0.4113 0.23999999
0.61360002 -0.02028 -0.37099999
-0.78130001 -0.1963 -0.2315
-0.78030002 -0.1165 -0.2737
-0.91109997 -0.1673 0.308
0.55500001 -0.090290003 0.3779
0.72079998 -0.1892 0.052650001
0.58389997 -0.1442 -0.2466
0.44710001 -0.20739999 -0.27289999
0.56290001 -0.1126 -0.27289999
0.39559999 -0.24169999 0.37970001
-0.4567 -0.1236 -0.3193
0.52079999 -0.1547 -0.2466
0.32069999 -0.2079 -0.02221
-0.62949997 -0.1715 0.36140001
-0.7256 -0.1548 0.3378
0.4718 -0.31040001 0.37079999
-0.54720002 -0.2202 -0.32659999
0.61860001 -0.3466 0.3565
0.2577 0.37869999 -0.042180002
0.52079999 0.002384 -0.36590001
-0.38159999 0.1406 0.38800001
0.74360001 0.32339999 0.29120001
0.49000001 -0.3809 0.35710001
0.85219997 -0.059810001 -0.1473
-0.55190003 -0.22830001 -0.2344
0.67799997 -0.1865 -0.25420001
-0.9095 -0.02626 -0.2101
-0.24420001 -0.20190001 0.36399999
0.27160001 -0.2088 0.043419998
-0.8994 0.015939999 0.1789
0.6778 -0.1911 -0.084190004
0.36300001 -0.1121 0.26230001
0.53109998 -0.21699999 -0.2466
0.6164 0.41010001 0.2234
-0.52170002 -0.2053 -0.07367
0.29969999 0.076810002 0.36430001
0.1629 -0.1971 -0.3642
0.2071 -0.2079 -0.055130001
0.88279998 -0.09364 -0.35229999
0.77340001 0.2018 -0.3423
0.93480003 -0.054499999 0.0062190001
-0.33180001 -0.1339 0.37380001
0.21080001 -0.2088 0.3193
0.41549999 -0.24950001 0.27289999
0.54180002 -0.1653 0.27289999
0.26809999 -0.1232 -0.3741
0.4576 -0.28099999 0.27289999
0.51029998 -0.044769999 0.26089999
-0.92580003 -0.092859998 -0.34670001
0.64709997 0.045230001 0.36390001
0.1418 -0.1654 0.36430001
0.64709997 0.034710001 -0.36430001
-0.16339999 0.04524 -0.36430001
-0.1108 0.087339997 0.36430001
0.26809999 -0.038970001 -0.36430001
0.2471 0.01366 -0.36430001
-0.40549999 -0.038970001 0.36430001
-0.3876 0.1735 0.063150004
-0.22660001 0.05576 0.36430001
0.1313 0.38249999 -0.084190004
-0.4991 0.1229 -0.2631
0.41549999 -0.3021 -0.27329999
0.38389999 -0.1548 0.24600001
-0.56339997 -0.1653 0.2463
0.55239999 -0.32319999 0.27289999
0.74180001 -0.1892 0.31580001
0.405 -0.1758 0.27289999
-0.65810001 -0.18629999 -0.2466
0.4892 -0.1758 0.27289999
0.07863 0.3822 0.02107
0.0050010001 0.38249999 -0.01051
-0.13240001 -0.083760001 0.3725
-0.005537 -0.038970001 0.36430001
0.85570002 0.055399999 0.13689999
-0.6049 0.1051 -0.2
-0.80479997 0.072339997 -0.14740001
0.047060002 0.382 -0.094729997
-0.39500001 0.04524 -0.36430001
0.85229999 -0.01788 -0.2316
-0.80549997 -0.199 0.12630001
0.63660002 -0.22840001 0.27289999
-0.17399999 0.01366 0.36390001
0.078680001 -0.09166 -0.3741
0.047090001 0.05576 -0.36430001
0.58270001 -0.2131 -0.1473
0.1945 0.25420001 -0.33019999
0.1524 0.2119 -0.34
-0.6645 -0.22139999 0.23810001
0.078659996 0.38170001 -0.2
-0.67830002 0.09251 0.2316
0.39449999 0.1596 -0.35210001
-0.02658 0.2441 -0.33250001
-0.5424 -0.1021 0.24600001
0.1208 0.38249999 -0.2316
-0.6476 0.01371 0.36430001
-0.63559997 0.099660002 0.042119998
0.85180002 0.01366 0.31580001
0.31029999 0.1496 -0.35440001
0.56290001 0.04524 -0.36430001
-0.73140001 0.084629998 1.4e-05
-0.3003 0.05576 -0.36430001
-0.1003 0.024180001 -0.36430001
0.1524 0.38249999 -0.042089999
0.80500001 -0.01792 -0.36430001
-0.79500002 -0.01792 0.36340001
0.01553 0.38150001 0.221
0.77340001 -0.059829999 -0.3642
-0.6476 -0.042130001 -0.34729999
0.65740001 0.3822 0.14740001
0.9418 0.045079999 0.2502
0.44850001 -0.2122 -0.02104
0.4454 -0.3635 -0.3678
-0.42950001 -0.1476 -0.36899999
0.84579998 0.033489998 -0.1894
0.41909999 -0.3407 0.37149999
0.1103 -0.1021 -0.3741
-0.64609998 -0.22220001 0.12630001
0.226 -0.091669999 0.3734
0.63489997 -0.2008 0.2211
0.53130001 0.097439997 0.3637
-0.78390002 0.07384 -0.30520001
-0.6049 0.1048 -0.01051
-0.7845 0.075649999 0.042130001
0.4366 0.09747 -0.3642
0.3734 0.097479999 -0.3642
0.1945 0.2018 -0.3423
0.26820001 0.38249999 0
-0.68120003 -0.28099999 -0.2947
0.45829999 -0.2145 -0.2
-0.1692 -0.2088 0.32980001
-0.60640001 -0.2253 -0.1789
0.83700001 -0.1521 -0.1473
-0.58310002 -0.1126 -0.36719999
0.3418 0.1596 -0.35210001
0.6997 0.2018 0.34200001
0.38389999 0.29629999 0.3202
0.88429999 0.055339999 0.24590001
-0.667 -0.1547 -0.28799999
0.76289999 -0.05982 0.3642
0.26809999 -0.18629999 -0.36430001
0.88620001 -0.1017 0.17900001
-0.56389999 -0.21520001 -0.1052
-0.58329999 -0.2811 0.28580001
-0.4993 0.1235 0.25260001
-0.63880002 -0.1126 0.37830001
-0.026590001 -0.1758 0.36430001
-0.65810001 -0.1126 -0.2466
0.25760001 -0.076820001 -0.3707
-0.56910002 -0.24950001 0.2924
0.85100001 -0.1451 -0.33680001
-0.78560001 -0.1547 0.3263
-0.1057 0.37349999 0.1158
0.57340002 0.38249999 -0.1052
-0.76380002 -0.28960001 0.3105
0.72109997 0.045230001 0.36390001
-0.3168 0.1187 -0.39129999
-0.9368 -0.1081 0.1088
-0.23710001 0.2441 -0.33250001
-0.75230002 -0.155 0.2816
0.51639998 0.37149999 0.27720001
-0.73119998 0.083700001 -0.27360001
-0.30950001 -0.20379999 -0.33880001
0.29120001 -0.2078 -0.208
0.6706 -0.1088 -0.2877
-0.4461 0.13339999 0.1684
-0.86080003 -0.18529999 0.1018
-0.89950001 0.015969999 0.08422
-0.7633 -0.1442 0.24600001
0.85189998 0.097269997 0.073710002
0.66439998 -0.27939999 0.3572
0.85210001 0.097280003 -0.30520001
0.76789999 0.27410001 0.25260001
-0.84930003 -0.1943 -0.2245
0.41479999 0.066299997 -0.36489999
-0.61589998 -0.38319999 -0.35749999
-0.7518 0.081200004 0.042119998
0.56290001 0.41159999 -0.2316
-0.56239998 0.1129 0.26320001
0.85219997 0.034650002 0.2001
-0.65799999 0.095820002 0.073700003
0.51020002 0.38249999 0.2211
0.72659999 0.35690001 -0.064240001
-0.1035 -0.2076 0.2264
-0.5844 -0.042119998 -0.2737
0.03658 0.28650001 -0.32280001
-0.5442 -0.2106 0.12630001
0.39649999 -0.082209997 -0.2947
0.59439999 0.37360001 -0.2687
0.51029998 -0.070950001 0.35749999
-0.34020001 0.2096 0.1158
-0.71829998 -0.22840001 -0.31200001
0.80190003 -0.1696 0.063170001
0.27950001 0.3712 -0.27720001
-0.57130003 -0.21699999 -0.1789
-0.33180001 -0.069559999 -0.3673
0.25760001 0.38299999 -0.2534
-0.3105 -0.20810001 0.2069
0.95929998 0.1785 0.084880002
-0.1787 0.33320001 -0.2
-0.32730001 0.2183 0.2421
0.60769999 -0.2071 0.14740001
0.2308 0.3876 0.2402
0.62690002 0.1336 -0.35800001
-0.3213 0.1772 -0.3479
-0.61900002 -0.18629999 -0.25960001
-0.49430001 -0.1989 -0.094719999
-0.2476 -0.038970001 -0.36430001
-0.9206 -0.1134 -0.30829999
-0.64560002 -0.2027 -0.38049999
0.55229998 0.076810002 -0.36430001
-0.5442 -0.096050002 0.30790001
0.54180002 0.38249999 -0.2105
-0.86739999 0.04394 0.30469999
-0.76209998 0.079489999 -0.1158
0.7216 0.1336 -0.35800001
-0.61180001 -0.3547 0.2726
0.51029998 0.1846 -0.34619999
0.85949999 -0.038759999 0.27720001
0.88190001 -0.1279 -0.073399998
-0.7852 -0.1548 -0.33680001
0.405 0.38249999 -7.0000001e-06
-0.34369999 0.1052 0.4522
0.089469999 -0.2084 0.25350001
0.426 0.3818 -0.095859997
0.53130001 0.38249999 -0.1158
0.479 -0.1648 -0.36559999
0.97060001 0.01368 0.2105
-0.90280002 -0.17479999 0.038619999
-0.49939999 -0.1212 0.34299999
-0.37619999 0.1053 0.3926
0.76410002 0.28099999 -0.045589998
0.79960001 0.211 0.031580001
-0.82959998 0.066059999 -0.21080001
0.8721 -0.1346 0.2316
-0.1961 0.31909999 -0.27329999
0.62690002 -0.1218 -0.37180001
0.61210001 -0.229 0.3714
0.29969999 0.3822 0.1158
-0.047630001 0.3691 -0.28349999
-0.78130001 -0.1963 -0.0105
0.36399999 -0.2595 -0.3263
-0.46790001 -0.1953 -0.221
0.83069998 0.1476 0.042119998
0.8071 0.1972 0.1123
0.3418 0.36390001 -0.3003
0.81730002 0.176 0.2386
0.27169999 0.36059999 0.30450001
0.03404 -0.2084 -0.090640001
0.5273 -0.01345 0.37180001
-0.2376 0.28690001 -0.1789
0.78939998 0.2322 0.2631
-0.56519997 -0.37709999 0.3159
0.6943 0.37259999 -0.2456
-0.8908 0.0085540004 -0.28369999
0.53130001 0.37149999 -0.27610001
0.53329998 -0.081629999 -0.37639999
0.36610001 -0.1974 0.28709999
-0.068709999 0.38249999 -0.221
0.47870001 0.36390001 -0.3003
0.6771 0.37819999 1.3e-05
0.31380001 0.1322 0.3576
-0.37130001 -0.19580001 -0.36399999
0.3348 -0.069760002 0.3671
-0.72399998 -0.22930001 0.33219999
-0.4567 -0.1236 -0.26679999
0.35620001 -0.19679999 -0.18700001
0.46700001 -0.2165 0.1991
0.9598 -0.03483 -0.0047920002
-0.76370001 0.078170002 0.26289999
0.25760001 0.3768 0.26140001
-0.19059999 0.32409999 -0.062270001
0.25279999 -0.2088 -0.089280002
0.59030002 -0.088869996 0.3263
0.61589998 0.38029999 -0.020889999
0.90679997 -0.090350002 0.061689999
-0.5255 -0.3118 -0.34040001
-0.465 -0.2289 -0.28709999
0.2366 -0.1339 -0.37380001
-0.54329997 -0.047189999 -0.3193
-0.49070001 -0.2861 -0.26069999
0.85219997 0.02414 -0.2226
0.87419999 0.16069999 0.094779998
0.61309999 -0.06146 -0.35440001
-0.7105 -0.2956 0.3439
-0.48609999 -0.15899999 0.37490001
0.8933 0.089120001 0.2412
0.83490002 0.1409 0.2035
0.35170001 -0.2031 -0.1075
0.86619997 0.048080001 0.063510001
-0.47189999 -0.1044 -0.34380001
-0.71060002 0.08433 -0.3556
0.5844 -0.04386 0.34740001
0.6577 0.37709999 -0.2615
-0.24959999 -0.2077 0.26699999
0.69870001 -0.08416 0.37239999
-0.78509998 -0.18629999 0.33680001
0.66100001 0.38589999 0.2139
0.36379999 -0.19679999 -0.31580001
-0.51929998 -0.31259999 0.31560001
0.3818 -0.30599999 -0.32280001
0.74040002 0.33050001 -0.228
0.77899998 0.25330001 -0.221
-0.67000002 -0.1661 0.34760001
-0.34240001 -0.1654 -0.36430001
-0.79449999 0.074050002 -0.084179997
-0.9267 -0.1622 0.1053
-0.86809999 -0.18350001 -0.1158
-0.41600001 0.04524 0.36390001
0.75230002 0.003144 0.36379999
0.036589999 0.38150001 -0.221
0.3418 0.3809 0.1999
-0.61839998 -0.093170002 -0.38370001
0.73979998 0.33019999 -0.1228
0.84399998 -0.1486 1.7e-05
0.41549999 0.2343 0.3344
0.53130001 0.37729999 0.042210001
0.67220002 -0.2485 0.31580001
0.41549999 0.37729999 0.063060001
0.34529999 0.1846 0.3457
0.8071 0.1972 0.2807
0.46810001 -0.34419999 0.27289999
0.49970001 0.32890001 0.31290001
0.63739997 0.27790001 -0.32480001
-0.80549997 -0.199 0.25260001
-0.17389999 0.1494 0.35339999
0.8387 0.134 0.2386
-0.2199 0.30050001 0.1158
-0.45919999 -0.19850001 -0.106
0.1208 0.076810002 -0.36430001
-0.58450001 0.076800004 -0.36430001
0.33129999 0.01366 -0.36430001
-0.56029999 -0.3021 -0.2383
0.4366 -0.31259999 0.27289999
0.70060003 0.27790001 -0.32480001
-0.89749998 0.022159999 -0.13680001
0.5007 -0.2245 -0.13680001
0.53130001 0.1596 -0.35210001
0.8089 -0.1661 -0.31580001
0.74180001 -0.1892 0.34740001
0.1945 -0.148 0.3687
0.62599999 -0.29159999 -0.27289999
-0.6476 -0.042130001 -0.31569999
0.74180001 0.0031320001 -0.36430001
-0.1681 0.3414 0.2
0.08918 0.38249999 0.15790001
-0.36340001 0.066289999 -0.36430001
-0.2476 0.087339997 -0.36430001
0.65750003 -0.1727 0.2811
-0.3529 0.01366 0.36359999
0.83359998 0.13770001 0.35499999
-0.43709999 0.0031320001 0.36430001
0.026040001 0.0031320001 0.36430001
0.79650003 0.2182 -0.098229997
0.44850001 -0.2122 0.1158
0.86510003 -0.1381 0.052650001
0.84570003 0.12 -0.049109999
0.226 0.38190001 0.063170001
-0.87400001 0.048829999 0.01053
-0.59490001 0.1064 0.052650001
0.60030001 -0.2089 0.073710002
-0.047630001 0.2119 -0.34
0.01553 0.36390001 -0.3003
-0.079219997 -0.059829999 -0.3642
0.1102 -0.038970001 0.36430001
0.39649999 -0.082209997 0.3263
0.0471 -0.1021 0.37360001
-0.68849999 0.090790004 0.031599998
-0.77350003 -0.19490001 -0.04208
-0.92320001 -0.064180002 0.1158
0.01553 -0.1021 -0.3741
-0.1207 0.36919999 -0.01051
0.7676 0.2739 0.12630001
0.85100001 -0.1451 0.25260001
0.97060001 -0.03895 0.1684
0.7299 0.35159999 0.15090001
0.1102 0.38249999 -0.2
0.53039998 -0.2254 -0.1158
0.88609999 -0.071170002 0.37349999
0.0049669999 0.30630001 0.31779999
-0.90399998 0.0010010001 -0.04211
0.83420002 0.1406 0.1088
0.77890003 0.25330001 -0.28420001
0.80190003 -0.1696 -0.1052
-0.7392 -0.3019 -0.32210001
0.74680001 0.31619999 0.2421
0.82999998 -0.1556 0.1158
0.97039998 0.02414 0.16859999
0.047109999 0.38150001 0.02107
0.53109998 -0.071010001 -0.3468
-0.06346 -0.2088 -0.26359999
-0.57389998 0.01372 -0.36430001
-0.67919999 0.01372 0.36430001
0.68290001 -0.17560001 -0.34729999
-0.031739999 -0.2045 -0.35159999
0.5007 -0.2245 -0.02104
0.39449999 0.3786 -0.1894
0.73339999 0.34450001 0.01756
0.53039998 -0.2254 -0.1789
0.59450001 -0.1443 0.2463
0.83649999 -0.0073950002 0.36390001
0.46900001 0.37819999 -0.03139
-0.29179999 0.24590001 0.2947
0.62599999 0.4113 -0.23999999
-0.84560001 0.060880002 -0.1788
0.4682 -0.042130001 0.3053
0.4682 -0.1337 -0.27289999
-0.20550001 -0.18629999 -0.36430001
-0.058150001 0.38249999 -0.1473
0.49070001 -0.2221 -0.2
-0.4869 -0.1971 0.17900001
0.1866 0.1411 0.3563
0.2366 0.1696 0.34979999
-0.35030001 -0.069499999 0.366
0.3524 0.28650001 -0.32280001
0.82300001 -0.1591 0.17900001
0.4605 -0.0062139998 0.36860001
0.79299998 0.2253 0.214
0.32789999 -0.2086 -0.3222
-0.63840002 -0.21789999 -0.27489999
-0.64179999 -0.308 0.3603
0.87410003 0.1189 0.1789
-0.77579999 -0.2251 -0.36269999
-0.00053100003 -0.2088 -0.2638
-0.5952 -0.071800001 0.31569999
-0.67619997 -0.33160001 -0.41010001
0.46700001 -0.2165 -0.06402
0.43740001 0.27790001 -0.32480001
-0.27340001 0.25960001 -0.084190004
-0.4296 0.14139999 -0.073660001
0.40259999 -0.1198 -0.3263
-0.33520001 0.111 -0.4395
0.3522 -0.1339 -0.33680001
-0.8897 -0.081150003 0.3741
-0.56910002 -0.1442 0.2924
0.67659998 -0.1154 0.35089999
0.405 0.01366 -0.36430001
-0.86080003 -0.18529999 0.2491
0.31380001 0.22679999 0.33579999
0.31029999 0.38150001 -0.2419
-0.53920001 -0.22840001 0.42469999
0.4892 0.2119 0.34
0.39390001 -0.1015 0.24770001
-0.27939999 0.255 0.042119998
-0.46869999 0.12819999 -0.13680001
0.09973 0.32890001 -0.31290001
0.42609999 -0.081220001 -0.2466
0.87419999 0.1487 0.043299999
0.226 0.2439 0.33160001
0.51050001 -0.37810001 -0.2818
-0.91649997 -0.061250001 -0.24160001
-0.74059999 -0.2 0.15790001
0.405 0.40869999 -0.245
0.068159997 0.30630001 0.3177
0.2471 0.2343 -0.3348
0.54930001 -0.15019999 0.36219999
-0.46849999 -0.2739 0.35249999
0.35159999 -0.1547 0.34729999
0.067280002 0.3743 0.26989999
0.72079998 0.066289999 -0.36430001
-0.85000002 0.056460001 -0.2471
-0.87779999 -0.1811 -0.2316
-0.66689998 -0.3712 -0.36770001
-0.62180001 -0.249 0.37090001
0.426 0.38150001 -0.2419
-0.29179999 0.24590001 -0.01056
-0.098109998 0.3757 0.2211
-0.7529 -0.1547 -0.2466
0.04518 -0.2088 -0.1653
0.58710003 -0.091179997 -0.28299999
-0.49649999 -0.18629999 0.3263
0.54180002 -0.081069998 -0.2466
-0.4172 -0.208 0.31650001
0.87849998 -0.13160001 -0.01051
0.78789997 -0.1767 -0.25260001
-0.075759999 -0.20190001 0.36399999
0.0045639998 -0.20739999 0.2255
0.87410003 0.076820001 0.2105
-0.55250001 -0.043930002 0.29480001
-0.4648 -0.19670001 -0.2823
-0.53189999 0.118 0.073700003
-0.21600001 -0.1411 0.37220001
-0.69889998 0.090060003 -0.084200002
-0.69880003 0.089079998 0.1053
-0.068700001 0.37720001 0.26140001
-0.25040001 0.26230001 0.32800001
-0.65810001 -0.042119998 -0.2737
0.85039997 0.1061 -0.34729999
-0.02568 -0.084100001 -0.37259999
0.97219998 0.088830002 0.09826
-0.15189999 0.34740001 0.30840001
-0.22660001 -0.1125 -0.37509999
-0.35139999 0.2 -0.084190004
0.4594 -0.36109999 -0.278
-0.47499999 -0.2387 0.3865
0.49939999 -0.2911 0.36570001
-0.59500003 0.1074 0.2737
0.51029998 0.3784 0.07474
0.85409999 -0.01791 0.1881
0.28920001 0.3766 0.063110001
-0.4233 0.1462 -0.2315
-0.88660002 0.032910001 -0.2309
-0.88450003 -0.1772 -0.33309999
-0.34549999 0.2049 0.30520001
-0.72890002 -0.072530001 -0.31580001
0.6857 0.35620001 0.30599999
-0.1003 0.076810002 -0.36430001
-0.42660001 0.1075 -0.36340001
-0.20550001 0.1075 -0.36340001
0.070759997 -0.20739999 0.13950001
0.426 0.1075 0.36340001
0.44240001 -0.089060001 0.34729999
0.59420002 0.38209999 -0.2316
0.27869999 0.38690001 0.20810001
-0.168 0.3414 -0.12630001
0.43180001 -0.055020001 0.26199999
0.5668 -0.1185 0.38
-0.78399998 0.074029997 0.2947
